-116.81893467903137,-16.155997291207314,290.0000214576721, 0,  0, 180
-118.27141046524048,-16.044575721025467,288.0000174045563, 0,  0, 180
-120.52952498197556,-16.044575721025467,288.0000174045563, 0,  0, 180
-122.36128747463226,-15.988864004611969,287.00000047683716, 0,  0, 180
-124.17738139629364,-15.93315601348877,286.00001335144043, 0,  0, 180
-126.41982734203339,-15.93315601348877,286.00001335144043, 0,  0, 180
-128.21239233016968,-15.87744615972042,285.0000262260437, 0,  0, 180
-129.98928129673004,-15.821734443306923,284.0000092983246, 0,  0, 180
-131.75049424171448,-15.766024589538574,283.00002217292786, 0,  0, 180
-133.96941125392914,-15.766024589538574,283.00002217292786, 0,  0, 180
-135.7070803642273,-15.710312873125076,282.00000524520874, 0,  0, 180
-137.918159365654,-15.710312873125076,282.00000524520874, 0,  0, 180
-140.62614738941193,-15.766024589538574,283.00002217292786, 0,  0, 180
-142.3403024673462,-15.710312873125076,282.00000524520874, 0,  0, 180
-144.5513665676117,-15.710312873125076,282.00000524520874, 0,  0, 180
-146.24202251434326,-15.654603019356728,281.000018119812, 0,  0, 180
-147.9169726371765,-15.598892234265804,280.0000011920929, 0,  0, 180
-150.1123607158661,-15.598892234265804,280.0000011920929, 0,  0, 180
-152.30776369571686,-15.598892234265804,280.0000011920929, 0,  0, 180
-154.50315177440643,-15.598892234265804,280.0000011920929, 0,  0, 180
-156.698539853096,-15.598892234265804,280.0000011920929, 0,  0, 180
-158.89394283294678,-15.598892234265804,280.0000011920929, 0,  0, 180
-161.08933091163635,-15.598892234265804,280.0000011920929, 0,  0, 180
-163.28473389148712,-15.598892234265804,280.0000011920929, 0,  0, 180
-165.4801219701767,-15.598892234265804,280.0000011920929, 0,  0, 180
-167.67551004886627,-15.598892234265804,280.0000011920929, 0,  0, 180
-169.87091302871704,-15.598892234265804,280.0000011920929, 0,  0, 180
-172.6808249950409,-15.654603019356728,281.000018119812, 0,  0, 180
-174.88405108451843,-15.654603019356728,281.000018119812, 0,  0, 180
-177.08729207515717,-15.654603019356728,281.000018119812, 0,  0, 180
-179.92855608463287,-15.710312873125076,282.00000524520874, 0,  0, 180
-182.7855408191681,-15.766024589538574,283.00002217292786, 0,  0, 180
-188.54650855064392,-15.87744615972042,285.0000262260437, 0,  0, 180
-190.7811015844345,-15.87744615972042,285.0000262260437, 0,  0, 180
-193.0156946182251,-15.87744615972042,285.0000262260437, 0,  0, 180
-195.25030255317688,-15.87744615972042,285.0000262260437, 0,  0, 180
-198.17781448364258,-15.93315601348877,286.00001335144043, 0,  0, 180
-207.7709287405014,-16.155997291207314,290.0000214576721, 0,  0, 180
-210.044726729393,-16.155997291207314,290.0000214576721, 0,  0, 180
-213.05064857006073,-16.211707144975662,291.00000858306885, 0,  0, 180
-216.81223809719086,-16.32312685251236,293.0000126361847, 0,  0, 180
-219.8573648929596,-16.37883670628071,293.9999997615814, 0,  0, 180
-222.91819751262665,-16.434548422694206,295.00001668930054, 0,  0, 180
-227.52168774604797,-16.6016798466444,298.0000078678131, 0,  0, 180
-231.40089213848114,-16.7130995541811,300.00001192092896, 0,  0, 180
-234.53228175640106,-16.768811270594597,301.00002884864807, 0,  0, 180
-236.89232766628265,-16.768811270594597,301.00002884864807, 0,  0, 180
-240.8420741558075,-16.880230978131294,303.0000030994415, 0,  0, 180
-245.62592804431915,-17.04736240208149,306.0000240802765, 0,  0, 180
-250.4567801952362,-17.214493826031685,309.00001525878906, 0,  0, 180
-237.99119889736176 ,-14.504501596093178 ,303.0000030994415, 0, 0, 180
-234.8378747701645 ,-14.456632547080517 ,302.0000159740448, 0, 0, 180
-230.93044757843018 ,-14.360892586410046 ,300.00001192092896, 0, 0, 180
-227.05437242984772 ,-14.265153557062149 ,298.0000078678131, 0, 0, 180
-223.2096791267395 ,-14.169413596391678 ,296.00000381469727, 0, 0, 180
-219.39633786678314 ,-14.073674567043781 ,293.9999997615814, 0, 0, 180
-216.35277569293976 ,-14.02580551803112 ,293.0000126361847, 0, 0, 180
-213.3249044418335 ,-13.97793646901846 ,292.00002551078796, 0, 0, 180
-210.31267940998077 ,-13.930066488683224 ,291.00000858306885, 0, 0, 180
-208.0310434103012 ,-13.930066488683224 ,291.00000858306885, 0, 0, 180
-204.33533191680908 ,-13.834326528012753 ,289.000004529953, 0, 0, 180
-200.67095756530762 ,-13.738587498664856 ,287.00000047683716, 0, 0, 180
-197.72931933403015 ,-13.690718449652195 ,286.00001335144043, 0, 0, 180
-195.4868882894516 ,-13.690718449652195 ,286.00001335144043, 0, 0, 180
-192.56877899169922 ,-13.642849400639534 ,285.0000262260437, 0, 0, 180
-190.33418595790863 ,-13.642849400639534 ,285.0000262260437, 0, 0, 180
-188.09957802295685 ,-13.642849400639534 ,285.0000262260437, 0, 0, 180
-185.21282076835632 ,-13.594978488981724 ,284.0000092983246, 0, 0, 180
-182.34175443649292 ,-13.547109439969063 ,283.00002217292786, 0, 0, 180
-180.12283742427826 ,-13.547109439969063 ,283.00002217292786, 0, 0, 180
-177.27527022361755 ,-13.499239459633827 ,282.00000524520874, 0, 0, 180
-175.06419122219086 ,-13.499239459633827 ,282.00000524520874, 0, 0, 180
-172.85312712192535 ,-13.499239459633827 ,282.00000524520874, 0, 0, 180
-170.03695666790009 ,-13.451370410621166 ,281.000018119812, 0, 0, 180
-167.83371567726135 ,-13.451370410621166 ,281.000018119812, 0, 0, 180
-165.04104435443878 ,-13.403499498963356 ,280.0000011920929, 0, 0, 180
-162.8456562757492 ,-13.403499498963356 ,280.0000011920929, 0, 0, 180
-161.22402250766754 ,-13.451370410621166 ,281.000018119812, 0, 0, 180
-159.0207815170288 ,-13.451370410621166 ,281.000018119812, 0, 0, 180
-156.81754052639008 ,-13.451370410621166 ,281.000018119812, 0, 0, 180
-154.61431443691254 ,-13.451370410621166 ,281.000018119812, 0, 0, 180
-152.4110734462738 ,-13.451370410621166 ,281.000018119812, 0, 0, 180
-150.20784735679626 ,-13.451370410621166 ,281.000018119812, 0, 0, 180
-148.53130280971527 ,-13.499239459633827 ,282.00000524520874, 0, 0, 180
-146.32023870944977 ,-13.499239459633827 ,282.00000524520874, 0, 0, 180
-144.62019503116608 ,-13.547109439969063 ,283.00002217292786, 0, 0, 180
-142.40127801895142 ,-13.547109439969063 ,283.00002217292786, 0, 0, 180
-140.18236100673676 ,-13.547109439969063 ,283.00002217292786, 0, 0, 180
-135.74452698230743 ,-13.547109439969063 ,283.00002217292786, 0, 0, 180
-133.52562487125397 ,-13.547109439969063 ,283.00002217292786, 0, 0, 180
-131.3067078590393 ,-13.547109439969063 ,283.00002217292786, 0, 0, 180
-130.0000697374344 ,-13.642849400639534 ,285.0000262260437, 0, 0, 180
-128.2137781381607 ,-13.690718449652195 ,286.00001335144043, 0, 0, 180
-125.97133219242096 ,-13.690718449652195 ,286.00001335144043, 0, 0, 180
-123.72889369726181 ,-13.690718449652195 ,286.00001335144043, 0, 0, 180
-122.3360151052475 ,-13.786457479000092 ,288.0000174045563, 0, 0, 180
-120.49483507871628 ,-13.834326528012753 ,289.000004529953, 0, 0, 180
-118.63797903060913 ,-13.882197439670563 ,290.0000214576721, 0, 0, 180
-116.76543205976486 ,-13.930066488683224 ,291.00000858306885, 0, 0, 180
-114.87720906734467 ,-13.97793646901846 ,292.00002551078796, 0, 0, 180
-112.97329515218735 ,-14.02580551803112 ,293.0000126361847, 0, 0, 180
-109.11844670772552 ,-14.121544547379017 ,295.00001668930054, 0, 0, 180
-107.16748982667923 ,-14.169413596391678 ,296.00000381469727, 0, 0, 180
-105.90928792953491 ,-14.313023537397385 ,299.0000247955322, 0, 0, 180
-104.60402816534042 ,-14.456632547080517 ,302.0000159740448, 0, 0, 180
-102.5746613740921 ,-14.504501596093178 ,303.0000030994415, 0, 0, 180
-100.52962601184845 ,-14.552371576428413 ,304.00002002716064, 0, 0, 180
-98.79175573587418 ,-14.648111537098885 ,306.0000240802765, 0, 0, 180
-97.33753651380539 ,-14.791719615459442 ,309.00001525878906, 0, 0, 180
-95.83625942468643 ,-14.935328625142574 ,312.00000643730164, 0, 0, 180
-93.68930011987686 ,-14.98319860547781 ,313.00002336502075, 0, 0, 180
-92.10961312055588 ,-15.126807615160942 ,316.0000145435333, 0, 0, 180
-90.46395123004913 ,-15.70124365389347 ,328.000009059906, 0, 0, 180
-88.69610726833344 ,-15.844853594899178 ,331.00003004074097, 0, 0, 180
-88.44194561243057 ,-16.27567782998085 ,340.0000035762787, 0, 0, 180
-86.78524196147919 ,-16.467157751321793 ,344.0000116825104, 0, 0, 180
-89.7601917386055,-13.729932717978954,343.00002455711365, 0,  0, 180
-89.75421637296677,-13.329642824828625,333.0000042915344, 0,  0, 180
-90.42355418205261,-13.049439527094364,326.00000500679016, 0,  0, 180
-92.12398529052734,-12.929352931678295,323.0000138282776, 0,  0, 180
-93.7773659825325,-12.809266336262226,320.000022649765, 0,  0, 180
-95.38369625806808,-12.689178809523582,317.00000166893005, 0,  0, 180
-96.63426131010056,-12.52906396985054,313.00002336502075, 0,  0, 180
-98.45524281263351,-12.449005618691444,311.0000193119049, 0,  0, 180
-99.92044419050217,-12.32891995459795,308.00002813339233, 0,  0, 180
-101.33859515190125,-12.208831496536732,305.0000071525574, 0,  0, 180
-103.04980725049973,-12.12877407670021,303.0000030994415, 0,  0, 180
-104.38172519207001,-12.008687481284142,300.00001192092896, 0,  0, 180
-106.02237284183502,-11.928629130125046,298.0000078678131, 0,  0, 180
-107.63166099786758,-11.84857077896595,296.00000381469727, 0,  0, 180
-109.95249450206757,-11.84857077896595,296.00000381469727, 0,  0, 180
-111.89404129981995,-11.808542534708977,295.00001668930054, 0,  0, 180
-113.8198971748352,-11.768513359129429,293.9999997615814, 0,  0, 180
-115.73008447885513,-11.728484183549881,293.0000126361847, 0,  0, 180
-117.22175776958466,-11.64842676371336,291.00000858306885, 0,  0, 180
-120.94803154468536,-11.568368412554264,289.000004529953, 0,  0, 180
-122.78763949871063,-11.52834016829729,288.0000174045563, 0,  0, 180
-124.61156398057938,-11.488310061395168,287.00000047683716, 0,  0, 180
-126.86184048652649,-11.488310061395168,287.00000047683716, 0,  0, 180
-129.1121244430542,-11.488310061395168,287.00000047683716, 0,  0, 180
-130.90470433235168,-11.448281817138195,286.00001335144043, 0,  0, 180
-132.68159329891205,-11.408253572881222,285.0000262260437, 0,  0, 180
-134.4427913427353,-11.3682234659791,284.0000092983246, 0,  0, 180
-136.1883133649826,-11.328195221722126,283.00002217292786, 0,  0, 180
-138.40723037719727,-11.328195221722126,283.00002217292786, 0,  0, 180
-140.62614738941193,-11.328195221722126,283.00002217292786, 0,  0, 180
-142.8450644016266,-11.328195221722126,283.00002217292786, 0,  0, 180
-145.06398141384125,-11.328195221722126,283.00002217292786, 0,  0, 180
-147.28288352489471,-11.328195221722126,283.00002217292786, 0,  0, 180
-149.50180053710938,-11.328195221722126,283.00002217292786, 0,  0, 180
-151.18460357189178,-11.288166046142578,282.00000524520874, 0,  0, 180
-153.3956676721573,-11.288166046142578,282.00000524520874, 0,  0, 180
-155.60674667358398,-11.288166046142578,282.00000524520874, 0,  0, 180
-157.81782567501068,-11.288166046142578,282.00000524520874, 0,  0, 180
-160.02890467643738,-11.288166046142578,282.00000524520874, 0,  0, 180
-162.23996877670288,-11.288166046142578,282.00000524520874, 0,  0, 180
-166.66212677955627,-11.288166046142578,282.00000524520874, 0,  0, 180
-168.87320578098297,-11.288166046142578,282.00000524520874, 0,  0, 180
-171.69097065925598,-11.328195221722126,283.00002217292786, 0,  0, 180
-173.90987277030945,-11.328195221722126,283.00002217292786, 0,  0, 180
-176.1287897825241,-11.328195221722126,283.00002217292786, 0,  0, 180
-178.34770679473877,-11.328195221722126,283.00002217292786, 0,  0, 180
-184.07730758190155,-11.408253572881222,285.0000262260437, 0,  0, 180
-186.96562945842743,-11.448281817138195,286.00001335144043, 0,  0, 180
-189.20806050300598,-11.448281817138195,286.00001335144043, 0,  0, 180
-191.45050644874573,-11.448281817138195,286.00001335144043, 0,  0, 180
-193.69293749332428,-11.448281817138195,286.00001335144043, 0,  0, 180
-196.62044942378998,-11.488310061395168,287.00000047683716, 0,  0, 180
-198.8707333803177,-11.488310061395168,287.00000047683716, 0,  0, 180
-202.52256095409393,-11.568368412554264,289.000004529953, 0,  0, 180
-205.497145652771,-11.608397588133812,290.0000214576721, 0,  0, 180
-208.4873616695404,-11.64842676371336,291.00000858306885, 0,  0, 180
-210.76901257038116,-11.64842676371336,291.00000858306885, 0,  0, 180
-214.51491117477417,-11.728484183549881,293.0000126361847, 0,  0, 180
-218.29219162464142,-11.808542534708977,295.00001668930054, 0,  0, 180
-221.35299444198608,-11.84857077896595,296.00000381469727, 0,  0, 180
-224.42951798439026,-11.888600885868073,297.0000207424164, 0,  0, 180
-228.28519344329834,-11.968659237027168,299.0000247955322, 0,  0, 180
-232.9435646533966,-12.088744901120663,302.0000159740448, 0,  0, 180
-236.09061539173126,-12.12877407670021,303.0000030994415, 0,  0, 180
-239.25337195396423,-12.168803252279758,304.00002002716064, 0,  0, 180
-242.43180453777313,-12.208831496536732,305.0000071525574, 0,  0, 180
-312.6043677330017 ,-11.974035762250423 ,372.0000088214874, 0, 0, 180
-309.68761444091797 ,-11.974035762250423 ,372.0000088214874, 0, 0, 180
-236.39309406280518 ,-9.785233996808529 ,304.00002002716064, 0, 0, 180
-233.23974013328552 ,-9.753044694662094 ,303.0000030994415, 0, 0, 180
-228.57823967933655 ,-9.656480513513088 ,300.00001192092896, 0, 0, 180
-224.7178554534912 ,-9.592103771865368 ,298.0000078678131, 0, 0, 180
-221.6350883245468 ,-9.559915401041508 ,297.0000207424164, 0, 0, 180
-218.56798231601715 ,-9.527727030217648 ,296.00000381469727, 0, 0, 180
-211.03541553020477 ,-9.398974478244781 ,292.00002551078796, 0, 0, 180
-208.0310434103012 ,-9.366786107420921 ,291.00000858306885, 0, 0, 180
-205.74940741062164 ,-9.366786107420921 ,291.00000858306885, 0, 0, 180
-199.11205768585205 ,-9.27022099494934 ,288.0000174045563, 0, 0, 180
-196.1704045534134 ,-9.23803262412548 ,287.00000047683716, 0, 0, 180
-193.24444234371185 ,-9.20584425330162 ,286.00001335144043, 0, 0, 180
-191.66983664035797 ,-9.23803262412548 ,287.00000047683716, 0, 0, 180
-189.41956758499146 ,-9.23803262412548 ,287.00000047683716, 0, 0, 180
-187.16928362846375 ,-9.23803262412548 ,287.00000047683716, 0, 0, 180
-183.63039195537567 ,-9.173656813800335 ,285.0000262260437, 0, 0, 180
-178.53254079818726 ,-9.141468442976475 ,284.0000092983246, 0, 0, 180
-175.68500339984894 ,-9.109280072152615 ,283.00002217292786, 0, 0, 180
-173.46608638763428 ,-9.109280072152615 ,283.00002217292786, 0, 0, 180
-171.85229063034058 ,-9.141468442976475 ,284.0000092983246, 0, 0, 180
-169.02826726436615 ,-9.109280072152615 ,283.00002217292786, 0, 0, 180
-166.8093502521515 ,-9.109280072152615 ,283.00002217292786, 0, 0, 180
-164.59043323993683 ,-9.109280072152615 ,283.00002217292786, 0, 0, 180
-162.37151622772217 ,-9.109280072152615 ,283.00002217292786, 0, 0, 180
-160.1525992155075 ,-9.109280072152615 ,283.00002217292786, 0, 0, 180
-157.93368220329285 ,-9.109280072152615 ,283.00002217292786, 0, 0, 180
-155.7147651910782 ,-9.109280072152615 ,283.00002217292786, 0, 0, 180
-154.0382355451584 ,-9.141468442976475 ,284.0000092983246, 0, 0, 180
-151.27694606781006 ,-9.109280072152615 ,283.00002217292786, 0, 0, 180
-149.0580290555954 ,-9.109280072152615 ,283.00002217292786, 0, 0, 180
-147.3579704761505 ,-9.141468442976475 ,284.0000092983246, 0, 0, 180
-145.1312154531479 ,-9.141468442976475 ,284.0000092983246, 0, 0, 180
-142.90444552898407 ,-9.141468442976475 ,284.0000092983246, 0, 0, 180
-140.18236100673676 ,-9.109280072152615 ,283.00002217292786, 0, 0, 180
-137.9634439945221 ,-9.109280072152615 ,283.00002217292786, 0, 0, 180
-135.74452698230743 ,-9.109280072152615 ,283.00002217292786, 0, 0, 180
-134.94108617305756 ,-9.20584425330162 ,286.00001335144043, 0, 0, 180
-133.16261768341064 ,-9.23803262412548 ,287.00000047683716, 0, 0, 180
-130.91234862804413 ,-9.23803262412548 ,287.00000047683716, 0, 0, 180
-129.11038100719452 ,-9.27022099494934 ,288.0000174045563, 0, 0, 180
-126.85225903987885 ,-9.27022099494934 ,288.0000174045563, 0, 0, 180
-125.02674758434296 ,-9.302409365773201 ,289.000004529953, 0, 0, 180
-123.18557500839233 ,-9.334597736597061 ,290.0000214576721, 0, 0, 180
-121.32871150970459 ,-9.366786107420921 ,291.00000858306885, 0, 0, 180
-119.45617198944092 ,-9.398974478244781 ,292.00002551078796, 0, 0, 180
-117.96919256448746 ,-9.463350288569927 ,293.9999997615814, 0, 0, 180
-116.05744808912277 ,-9.495539590716362 ,295.00001668930054, 0, 0, 180
-114.13001269102097 ,-9.527727030217648 ,296.00000381469727, 0, 0, 180
-112.18690872192383 ,-9.559915401041508 ,297.0000207424164, 0, 0, 180
-109.85822975635529 ,-9.559915401041508 ,297.0000207424164, 0, 0, 180
-107.89159685373306 ,-9.592103771865368 ,298.0000078678131, 0, 0, 180
-106.26349598169327 ,-9.656480513513088 ,300.00001192092896, 0, 0, 180
-104.60402816534042 ,-9.720857255160809 ,302.0000159740448, 0, 0, 180
-103.25172543525696 ,-9.817421436309814 ,305.0000071525574, 0, 0, 180
-101.19100660085678 ,-9.84961073845625 ,306.0000240802765, 0, 0, 180
-100.08314996957779 ,-9.97836235910654 ,310.0000023841858, 0, 0, 180
-98.28256070613861 ,-10.042739100754261 ,312.00000643730164, 0, 0, 180
-96.75776958465576 ,-10.139305144548416 ,315.0000274181366, 0, 0, 180
-95.78458219766617 ,-10.300246067345142 ,320.000022649765, 0, 0, 180
-93.85854005813599 ,-10.364622808992863 ,322.00002670288086, 0, 0, 180
-91.90111607313156 ,-10.428998619318008 ,324.0000009536743, 0, 0, 180
-89.63654190301895 ,-10.461186990141869 ,325.00001788139343, 0, 0, 180
-90.14618396759033,-7.912962697446346,325.00001788139343, 0,  0, 180
-92.69440919160843,-7.912962697446346,325.00001788139343, 0,  0, 180
-94.94958072900772,-7.888615131378174,324.0000009536743, 0,  0, 180
-96.88817709684372,-7.8399209305644035,322.00002670288086, 0,  0, 180
-96.94299101829529,-7.645139470696449,314.0000104904175, 0,  0, 180
-99.0884006023407,-7.620792370289564,313.00002336502075, 0,  0, 180
-100.56927055120468,-7.5477492064237595,310.0000023841858, 0,  0, 180
-102.00311243534088,-7.474706508219242,307.0000112056732, 0,  0, 180
-104.07011210918427,-7.450359407812357,306.0000240802765, 0,  0, 180
-105.77348619699478,-7.401663810014725,304.00002002716064, 0,  0, 180
-107.80127346515656,-7.377315778285265,303.0000030994415, 0,  0, 180
-109.44976657629013,-7.328621577471495,301.00002884864807, 0,  0, 180
-111.06688529253006,-7.2799259796738625,299.0000247955322, 0,  0, 180
-113.03194612264633,-7.25557841360569,298.0000078678131, 0,  0, 180
-114.98133093118668,-7.2312308475375175,297.0000207424164, 0,  0, 180
-116.9150322675705,-7.206882815808058,296.00000381469727, 0,  0, 180
-119.23587322235107,-7.206882815808058,296.00000381469727, 0,  0, 180
-120.73539197444916,-7.158187683671713,293.9999997615814, 0,  0, 180
-122.20355123281479,-7.109493017196655,292.00002551078796, 0,  0, 180
-124.06667321920395,-7.0851449854671955,291.00000858306885, 0,  0, 180
-126.34831666946411,-7.0851449854671955,291.00000858306885, 0,  0, 180
-128.18793952465057,-7.06079788506031,290.0000214576721, 0,  0, 180
-130.01185655593872,-7.036449853330851,289.000004529953, 0,  0, 180
-131.82011246681213,-7.0121027529239655,288.0000174045563, 0,  0, 180
-134.0782344341278,-7.0121027529239655,288.0000174045563, 0,  0, 180
-135.38958132266998,-6.9634076207876205,286.00001335144043, 0,  0, 180
-136.66954636573792,-6.914712022989988,284.0000092983246, 0,  0, 180
-138.89630138874054,-6.914712022989988,284.0000092983246, 0,  0, 180
-141.6199803352356,-6.939060054719448,285.0000262260437, 0,  0, 180
-143.854558467865,-6.939060054719448,285.0000262260437, 0,  0, 180
-146.08916640281677,-6.939060054719448,285.0000262260437, 0,  0, 180
-148.32375943660736,-6.939060054719448,285.0000262260437, 0,  0, 180
-150.03007650375366,-6.914712022989988,284.0000092983246, 0,  0, 180
-152.2568315267563,-6.914712022989988,284.0000092983246, 0,  0, 180
-154.4835865497589,-6.914712022989988,284.0000092983246, 0,  0, 180
-157.2621464729309,-6.939060054719448,285.0000262260437, 0,  0, 180
-158.93709659576416,-6.914712022989988,284.0000092983246, 0,  0, 180
-160.59638559818268,-6.890364922583103,283.00002217292786, 0,  0, 180
-162.81530261039734,-6.890364922583103,283.00002217292786, 0,  0, 180
-165.034219622612,-6.890364922583103,283.00002217292786, 0,  0, 180
-167.25313663482666,-6.890364922583103,283.00002217292786, 0,  0, 180
-170.07088661193848,-6.914712022989988,284.0000092983246, 0,  0, 180
-172.2976416349411,-6.914712022989988,284.0000092983246, 0,  0, 180
-174.52438175678253,-6.914712022989988,284.0000092983246, 0,  0, 180
-176.75113677978516,-6.914712022989988,284.0000092983246, 0,  0, 180
-179.60810661315918,-6.939060054719448,285.0000262260437, 0,  0, 180
-182.48075246810913,-6.9634076207876205,286.00001335144043, 0,  0, 180
-184.72318351268768,-6.9634076207876205,286.00001335144043, 0,  0, 180
-187.61934340000153,-6.987754721194506,287.00000047683716, 0,  0, 180
-189.86961245536804,-6.987754721194506,287.00000047683716, 0,  0, 180
-192.11989641189575,-6.987754721194506,287.00000047683716, 0,  0, 180
-194.37018036842346,-6.987754721194506,287.00000047683716, 0,  0, 180
-200.9495347738266,-7.06079788506031,290.0000214576721, 0,  0, 180
-203.92410457134247,-7.0851449854671955,291.00000858306885, 0,  0, 180
-206.91436529159546,-7.109493017196655,292.00002551078796, 0,  0, 180
-210.63672006130219,-7.158187683671713,293.9999997615814, 0,  0, 180
-213.6661857366562,-7.182535715401173,295.00001668930054, 0,  0, 180
-216.71131253242493,-7.206882815808058,296.00000381469727, 0,  0, 180
-219.0321534872055,-7.206882815808058,296.00000381469727, 0,  0, 180
-222.10082411766052,-7.2312308475375175,297.0000207424164, 0,  0, 180
-227.4521440267563,-7.328621577471495,301.00002884864807, 0,  0, 180
-231.33915662765503,-7.377315778285265,303.0000030994415, 0,  0, 180
-234.48623716831207,-7.401663810014725,304.00002002716064, 0,  0, 180
-238.42816054821014,-7.450359407812357,306.0000240802765, 0,  0, 180
-306.5280318260193,-9.032951667904854,371.0000216960907, 0,  0, 180
-310.2709650993347,-9.057299233973026,372.0000088214874, 0,  0, 180
-313.18771839141846,-9.057299233973026,372.0000088214874, 0,  0, 180
-249.8864382505417 ,-5.199670791625977 ,315.0000274181366, 0, 0, 180
-245.0602501630783 ,-5.150149576365948 ,312.00000643730164, 0, 0, 180
-234.77928340435028 ,-5.03460131585598 ,305.0000071525574, 0, 0, 180
-231.62595927715302 ,-5.0180950202047825 ,304.00002002716064, 0, 0, 180
-227.73420810699463 ,-4.985081031918526 ,302.0000159740448, 0, 0, 180
-223.8738238811493 ,-4.952067043632269 ,300.00001192092896, 0, 0, 180
-220.78321874141693 ,-4.935560282319784 ,299.0000247955322, 0, 0, 180
-217.7082747220993 ,-4.919053521007299 ,298.0000078678131, 0, 0, 180
-213.926300406456 ,-4.886039532721043 ,296.00000381469727, 0, 0, 180
-210.89057624340057 ,-4.869532771408558 ,295.00001668930054, 0, 0, 180
-207.1634978055954 ,-4.836518783122301 ,293.0000126361847, 0, 0, 180
-204.166978597641 ,-4.820012021809816 ,292.00002551078796, 0, 0, 180
-201.1861354112625 ,-4.803505260497332 ,291.00000858306885, 0, 0, 180
-198.90448451042175 ,-4.803505260497332 ,291.00000858306885, 0, 0, 180
-195.94717025756836 ,-4.786998499184847 ,290.0000214576721, 0, 0, 180
-193.0055171251297 ,-4.770491272211075 ,289.000004529953, 0, 0, 180
-190.07956981658936 ,-4.75398451089859 ,288.0000174045563, 0, 0, 180
-187.16928362846375 ,-4.737477283924818 ,287.00000047683716, 0, 0, 180
-184.91899967193604 ,-4.737477283924818 ,287.00000047683716, 0, 0, 180
-182.66873061656952 ,-4.737477283924818 ,287.00000047683716, 0, 0, 180
-180.4184466600418 ,-4.737477283924818 ,287.00000047683716, 0, 0, 180
-176.9265979528427 ,-4.704464226961136 ,285.0000262260437, 0, 0, 180
-174.079030752182 ,-4.687956999987364 ,284.0000092983246, 0, 0, 180
-172.45741188526154 ,-4.704464226961136 ,285.0000262260437, 0, 0, 180
-170.22281885147095 ,-4.704464226961136 ,285.0000262260437, 0, 0, 180
-167.39878058433533 ,-4.687956999987364 ,284.0000092983246, 0, 0, 180
-165.1720255613327 ,-4.687956999987364 ,284.0000092983246, 0, 0, 180
-162.94527053833008 ,-4.687956999987364 ,284.0000092983246, 0, 0, 180
-161.2844318151474 ,-4.704464226961136 ,285.0000262260437, 0, 0, 180
-159.04982388019562 ,-4.704464226961136 ,285.0000262260437, 0, 0, 180
-156.81523084640503 ,-4.704464226961136 ,285.0000262260437, 0, 0, 180
-154.58063781261444 ,-4.704464226961136 ,285.0000262260437, 0, 0, 180
-152.34602987766266 ,-4.704464226961136 ,285.0000262260437, 0, 0, 180
-150.11143684387207 ,-4.704464226961136 ,285.0000262260437, 0, 0, 180
-147.87684381008148 ,-4.704464226961136 ,285.0000262260437, 0, 0, 180
-145.6422507762909 ,-4.704464226961136 ,285.0000262260437, 0, 0, 180
-143.4076428413391 ,-4.704464226961136 ,285.0000262260437, 0, 0, 180
-141.6683942079544 ,-4.720970522612333 ,286.00001335144043, 0, 0, 180
-139.42596316337585 ,-4.720970522612333 ,286.00001335144043, 0, 0, 180
-137.66317069530487 ,-4.737477283924818 ,287.00000047683716, 0, 0, 180
-135.88473200798035 ,-4.75398451089859 ,288.0000174045563, 0, 0, 180
-134.0905874967575 ,-4.770491272211075 ,289.000004529953, 0, 0, 180
-131.82462751865387 ,-4.770491272211075 ,289.000004529953, 0, 0, 180
-130.00696897506714 ,-4.786998499184847 ,290.0000214576721, 0, 0, 180
-128.17363440990448 ,-4.803505260497332 ,291.00000858306885, 0, 0, 180
-125.89198350906372 ,-4.803505260497332 ,291.00000858306885, 0, 0, 180
-124.4598999619484 ,-4.836518783122301 ,293.0000126361847, 0, 0, 180
-122.57952243089676 ,-4.853025544434786 ,293.9999997615814, 0, 0, 180
-120.6834614276886 ,-4.869532771408558 ,295.00001668930054, 0, 0, 180
-118.77170205116272 ,-4.886039532721043 ,296.00000381469727, 0, 0, 180
-116.8442815542221 ,-4.902546759694815 ,297.0000207424164, 0, 0, 180
-114.90116268396378 ,-4.919053521007299 ,298.0000078678131, 0, 0, 180
-112.94238269329071 ,-4.935560282319784 ,299.0000247955322, 0, 0, 180
-110.59802025556564 ,-4.935560282319784 ,299.0000247955322, 0, 0, 180
-109.70185697078705 ,-5.00158779323101 ,303.0000030994415, 0, 0, 180
-108.03455114364624 ,-5.03460131585598 ,305.0000071525574, 0, 0, 180
-105.98951578140259 ,-5.051108542829752 ,306.0000240802765, 0, 0, 180
-104.26732152700424 ,-5.084122531116009 ,308.00002813339233, 0, 0, 180
-102.84445434808731 ,-5.13364328071475 ,311.0000193119049, 0, 0, 180
-101.0517030954361 ,-5.16665680333972 ,313.00002336502075, 0, 0, 180
-99.85759854316711 ,-5.232684314250946 ,317.00000166893005, 0, 0, 180
-98.60076755285263 ,-5.298711825162172 ,321.00000977516174, 0, 0, 180
-97.28121757507324 ,-5.364739336073399 ,325.00001788139343, 0, 0, 180
-95.31596302986145 ,-5.397753324359655 ,327.0000219345093, 0, 0, 180
-94.12048012018204,-2.8598462231457233,330.00001311302185, 0,  0, 180
-96.41485661268234,-2.8511802665889263,329.0000259876251, 0,  0, 180
-98.39265048503876,-2.833847887814045,327.0000219345093, 0,  0, 180
-100.33908486366272,-2.81651527620852,325.00001788139343, 0,  0, 180
-100.98785161972046,-2.764518139883876,319.0000057220459, 0,  0, 180
-101.8669381737709,-2.721186960116029,314.0000104904175, 0,  0, 180
-103.99666428565979,-2.7125210035592318,313.00002336502075, 0,  0, 180
-105.4304987192154,-2.686522202566266,310.0000023841858, 0,  0, 180
-106.81729763746262,-2.660523634403944,307.0000112056732, 0,  0, 180
-108.86861383914948,-2.651857677847147,306.0000240802765, 0,  0, 180
-110.17700284719467,-2.6258588768541813,303.0000030994415, 0,  0, 180
-111.4383414387703,-2.5998603086918592,300.00001192092896, 0,  0, 180
-113.41125518083572,-2.5911941193044186,299.0000247955322, 0,  0, 180
-115.36847054958344,-2.582527929916978,298.0000078678131, 0,  0, 180
-117.31001734733582,-2.573861740529537,297.0000207424164, 0,  0, 180
-119.23587322235107,-2.565195318311453,296.00000381469727, 0,  0, 180
-121.55672162771225,-2.565195318311453,296.00000381469727, 0,  0, 180
-123.45906347036362,-2.556529361754656,295.00001668930054, 0,  0, 180
-125.34570693969727,-2.5478629395365715,293.9999997615814, 0,  0, 180
-127.21669673919678,-2.5391969829797745,293.0000126361847, 0,  0, 180
-129.07199561595917,-2.530530793592334,292.00002551078796, 0,  0, 180
-130.91160356998444,-2.5218643713742495,291.00000858306885, 0,  0, 180
-132.73553550243378,-2.5131984148174524,290.0000214576721, 0,  0, 180
-135.00933349132538,-2.5131984148174524,290.0000214576721, 0,  0, 180
-137.28314638137817,-2.5131984148174524,290.0000214576721, 0,  0, 180
-139.07569646835327,-2.504531992599368,289.000004529953, 0,  0, 180
-140.36351442337036,-2.4871996138244867,287.00000047683716, 0,  0, 180
-142.61378347873688,-2.4871996138244867,287.00000047683716, 0,  0, 180
-144.3593055009842,-2.478533424437046,286.00001335144043, 0,  0, 180
-146.60175144672394,-2.478533424437046,286.00001335144043, 0,  0, 180
-148.8441824913025,-2.478533424437046,286.00001335144043, 0,  0, 180
-151.08662843704224,-2.478533424437046,286.00001335144043, 0,  0, 180
-153.3290594816208,-2.478533424437046,286.00001335144043, 0,  0, 180
-155.57150542736053,-2.478533424437046,286.00001335144043, 0,  0, 180
-157.8139364719391,-2.478533424437046,286.00001335144043, 0,  0, 180
-160.05638241767883,-2.478533424437046,286.00001335144043, 0,  0, 180
-162.29881346225739,-2.478533424437046,286.00001335144043, 0,  0, 180
-163.96594047546387,-2.469867467880249,285.0000262260437, 0,  0, 180
-166.78369045257568,-2.478533424437046,286.00001335144043, 0,  0, 180
-169.02613639831543,-2.478533424437046,286.00001335144043, 0,  0, 180
-171.26856744289398,-2.478533424437046,286.00001335144043, 0,  0, 180
-173.51101338863373,-2.478533424437046,286.00001335144043, 0,  0, 180
-175.7534295320511,-2.478533424437046,286.00001335144043, 0,  0, 180
-180.8685064315796,-2.4871996138244867,287.00000047683716, 0,  0, 180
-183.75684320926666,-2.4958658032119274,288.0000174045563, 0,  0, 180
-186.01495027542114,-2.4958658032119274,288.0000174045563, 0,  0, 180
-188.27307224273682,-2.4958658032119274,288.0000174045563, 0,  0, 180
-191.19276106357574,-2.504531992599368,289.000004529953, 0,  0, 180
-194.1281408071518,-2.5131984148174524,290.0000214576721, 0,  0, 180
-197.07916676998138,-2.5218643713742495,291.00000858306885, 0,  0, 180
-200.04591345787048,-2.530530793592334,292.00002551078796, 0,  0, 180
-202.3354023694992,-2.530530793592334,292.00002551078796, 0,  0, 180
-205.325648188591,-2.5391969829797745,293.0000126361847, 0,  0, 180
-208.33157002925873,-2.5478629395365715,293.9999997615814, 0,  0, 180
-211.35318279266357,-2.556529361754656,295.00001668930054, 0,  0, 180
-215.1147723197937,-2.573861740529537,297.0000207424164, 0,  0, 180
-218.90772879123688,-2.5911941193044186,299.0000247955322, 0,  0, 180
-222.7320373058319,-2.6085267309099436,301.00002884864807, 0,  0, 180
-225.83989799022675,-2.6171926874667406,302.0000159740448, 0,  0, 180
-229.7191023826599,-2.634525066241622,304.00002002716064, 0,  0, 180
-233.62965881824493,-2.651857677847147,306.0000240802765, 0,  0, 180
-237.571582198143,-2.6691900566220284,308.00002813339233, 0,  0, 180
-247.12355434894562,-2.721186960116029,314.0000104904175, 0,  0, 180
-250.38039684295654,-2.729853382334113,315.0000274181366, 0,  0, 180
-245.8457201719284 ,-0.25838526198640466 ,313.00002336502075, 0, 0, 180
-242.61395633220673 ,-0.2575597318354994 ,312.00000643730164, 0, 0, 180
-238.62811923027039 ,-0.25590870063751936 ,310.0000023841858, 0, 0, 180
-234.6736639738083 ,-0.25425769854336977 ,308.00002813339233, 0, 0, 180
-229.996457695961 ,-0.2517811371944845 ,305.0000071525574, 0, 0, 180
-226.85880959033966 ,-0.2509556361474097 ,304.00002002716064, 0, 0, 180
-223.73682260513306 ,-0.2501301059965044 ,303.0000030994415, 0, 0, 180
-219.899982213974 ,-0.24847910390235484 ,301.00002884864807, 0, 0, 180
-216.0944789648056 ,-0.24682810180820525 ,299.0000247955322, 0, 0, 180
-212.32034265995026 ,-0.2451770706102252 ,297.0000207424164, 0, 0, 180
-208.57758820056915 ,-0.24352603941224515 ,295.00001668930054, 0, 0, 180
-206.26458525657654 ,-0.24352603941224515 ,295.00001668930054, 0, 0, 180
-203.26021313667297 ,-0.2427005092613399 ,293.9999997615814, 0, 0, 180
-200.27153193950653 ,-0.2418750082142651 ,293.0000126361847, 0, 0, 180
-197.2985416650772 ,-0.2410495071671903 ,292.00002551078796, 0, 0, 180
-194.34119760990143 ,-0.24022397701628506 ,291.00000858306885, 0, 0, 180
-191.39957427978516 ,-0.23939847596921027 ,290.0000214576721, 0, 0, 180
-188.47359716892242 ,-0.23857294581830502 ,289.000004529953, 0, 0, 180
-186.2076371908188 ,-0.23857294581830502 ,289.000004529953, 0, 0, 180
-183.94167721271515 ,-0.23857294581830502 ,289.000004529953, 0, 0, 180
-181.6757172346115 ,-0.23857294581830502 ,289.000004529953, 0, 0, 180
-178.78897488117218 ,-0.23774744477123022 ,288.0000174045563, 0, 0, 180
-175.91789364814758 ,-0.2369219291722402 ,287.00000047683716, 0, 0, 180
-173.66762459278107 ,-0.2369219291722402 ,287.00000047683716, 0, 0, 180
-171.41735553741455 ,-0.2369219291722402 ,287.00000047683716, 0, 0, 180
-169.16707158088684 ,-0.2369219291722402 ,287.00000047683716, 0, 0, 180
-167.4983948469162 ,-0.23774744477123022 ,288.0000174045563, 0, 0, 180
-165.24027287960052 ,-0.23774744477123022 ,288.0000174045563, 0, 0, 180
-162.98215091228485 ,-0.23774744477123022 ,288.0000174045563, 0, 0, 180
-160.1659506559372 ,-0.2369219291722402 ,287.00000047683716, 0, 0, 180
-157.91568160057068 ,-0.2369219291722402 ,287.00000047683716, 0, 0, 180
-155.66539764404297 ,-0.2369219291722402 ,287.00000047683716, 0, 0, 180
-153.94967794418335 ,-0.23774744477123022 ,288.0000174045563, 0, 0, 180
-151.16484463214874 ,-0.2369219291722402 ,287.00000047683716, 0, 0, 180
-148.91456067562103 ,-0.2369219291722402 ,287.00000047683716, 0, 0, 180
-146.66427671909332 ,-0.2369219291722402 ,287.00000047683716, 0, 0, 180
-144.4140076637268 ,-0.2369219291722402 ,287.00000047683716, 0, 0, 180
-142.65908300876617 ,-0.23774744477123022 ,288.0000174045563, 0, 0, 180
-140.88846743106842 ,-0.23857294581830502 ,289.000004529953, 0, 0, 180
-139.10217583179474 ,-0.23939847596921027 ,290.0000214576721, 0, 0, 180
-137.30019330978394 ,-0.24022397701628506 ,291.00000858306885, 0, 0, 180
-133.64920020103455 ,-0.2418750082142651 ,293.0000126361847, 0, 0, 180
-131.80015981197357 ,-0.2427005092613399 ,293.9999997615814, 0, 0, 180
-129.49499487876892 ,-0.2427005092613399 ,293.9999997615814, 0, 0, 180
-127.18984484672546 ,-0.2427005092613399 ,293.9999997615814, 0, 0, 180
-125.30945241451263 ,-0.24352603941224515 ,295.00001668930054, 0, 0, 180
-122.31984734535217 ,-0.24682810180820525 ,299.0000247955322, 0, 0, 180
-119.97547745704651 ,-0.24682810180820525 ,299.0000247955322, 0, 0, 180
-117.63111501932144 ,-0.24682810180820525 ,299.0000247955322, 0, 0, 180
-115.67231267690659 ,-0.24765360285528004 ,300.00001192092896, 0, 0, 180
-113.697849214077 ,-0.24847910390235484 ,301.00002884864807, 0, 0, 180
-112.07758635282516 ,-0.2501301059965044 ,303.0000030994415, 0, 0, 180
-110.7880175113678 ,-0.2526066673453897 ,306.0000240802765, 0, 0, 180
-109.0971902012825 ,-0.25425769854336977 ,308.00002813339233, 0, 0, 180
-107.37498849630356 ,-0.25590870063751936 ,310.0000023841858, 0, 0, 180
-105.62143474817276 ,-0.2575597318354994 ,312.00000643730164, 0, 0, 180
-103.50583493709564 ,-0.25838526198640466 ,313.00002336502075, 0, 0, 180
-102.02024132013321 ,-0.2608617942314595 ,316.0000145435333, 0, 0, 180
-101.43264383077621 ,-0.2658148587215692 ,322.00002670288086, 0, 0, 180
-100.4437804222107 ,-0.26994242216460407 ,327.0000219345093, 0, 0, 180
-99.07718002796173 ,-0.27324448456056416 ,331.00003004074097, 0, 0, 180
-97.64785319566727 ,-0.2765465178526938 ,335.00000834465027, 0, 0, 180
-99.05234724283218,2.3711298126727343,338.00002932548523, 0,  0, 180
-100.7998064160347,2.350084250792861,335.00000834465027, 0,  0, 180
-101.88276320695877,2.3150083143264055,330.00001311302185, 0,  0, 180
-102.88731008768082,2.2799326106905937,325.00001788139343, 0,  0, 180
-103.81344705820084,2.2448566742241383,320.000022649765, 0,  0, 180
-105.32568395137787,2.2238108795136213,317.00000166893005, 0,  0, 180
-106.79089277982712,2.2027655504643917,314.0000104904175, 0,  0, 180
-108.55699330568314,2.1887351758778095,312.00000643730164, 0,  0, 180
-110.64751446247101,2.1817199885845184,311.0000193119049, 0,  0, 180
-111.99510842561722,2.160674659535289,308.00002813339233, 0,  0, 180
-113.66711556911469,2.1466442849487066,306.0000240802765, 0,  0, 180
-114.92845416069031,2.1255984902381897,303.0000030994415, 0,  0, 180
-116.91704392433167,2.1185835357755423,302.0000159740448, 0,  0, 180
-118.8899576663971,2.111568348482251,301.00002884864807, 0,  0, 180
-121.25000357627869,2.111568348482251,301.00002884864807, 0,  0, 180
-123.61004948616028,2.111568348482251,301.00002884864807, 0,  0, 180
-125.13308227062225,2.097537973895669,299.0000247955322, 0,  0, 180
-126.62474811077118,2.083507599309087,297.0000207424164, 0,  0, 180
-128.08506190776825,2.0694772247225046,295.00001668930054, 0,  0, 180
-130.39806485176086,2.0694772247225046,295.00001668930054, 0,  0, 180
-132.71106779575348,2.0694772247225046,295.00001668930054, 0,  0, 180
-134.56636667251587,2.06246180459857,293.9999997615814, 0,  0, 180
-136.87153160572052,2.06246180459857,293.9999997615814, 0,  0, 180
-138.22992146015167,2.0484316628426313,292.00002551078796, 0,  0, 180
-140.5193954706192,2.0484316628426313,292.00002551078796, 0,  0, 180
-142.31979846954346,2.0414164755493402,291.00000858306885, 0,  0, 180
-144.10454034805298,2.034401288256049,290.0000214576721, 0,  0, 180
-145.873561501503,2.027386100962758,289.000004529953, 0,  0, 180
-148.13952147960663,2.027386100962758,289.000004529953, 0,  0, 180
-150.40548145771027,2.027386100962758,289.000004529953, 0,  0, 180
-152.6714414358139,2.027386100962758,289.000004529953, 0,  0, 180
-154.93740141391754,2.027386100962758,289.000004529953, 0,  0, 180
-157.20336139202118,2.027386100962758,289.000004529953, 0,  0, 180
-158.91753137111664,2.020370913669467,288.0000174045563, 0,  0, 180
-161.1756533384323,2.020370913669467,288.0000174045563, 0,  0, 180
-164.0012413263321,2.027386100962758,289.000004529953, 0,  0, 180
-166.26720130443573,2.027386100962758,289.000004529953, 0,  0, 180
-168.53317618370056,2.027386100962758,289.000004529953, 0,  0, 180
-170.7991361618042,2.027386100962758,289.000004529953, 0,  0, 180
-173.06509613990784,2.027386100962758,289.000004529953, 0,  0, 180
-177.59698629379272,2.027386100962758,289.000004529953, 0,  0, 180
-180.4853230714798,2.034401288256049,290.0000214576721, 0,  0, 180
-182.7591210603714,2.034401288256049,290.0000214576721, 0,  0, 180
-185.0329339504242,2.034401288256049,290.0000214576721, 0,  0, 180
-187.3067319393158,2.034401288256049,290.0000214576721, 0,  0, 180
-190.2342438697815,2.0414164755493402,291.00000858306885, 0,  0, 180
-196.13635540008545,2.0554468501359224,293.0000126361847, 0,  0, 180
-199.11091029644012,2.06246180459857,293.9999997615814, 0,  0, 180
-202.10117101669312,2.0694772247225046,295.00001668930054, 0,  0, 180
-205.10710775852203,2.076492179185152,296.00000381469727, 0,  0, 180
-208.12873542308807,2.083507599309087,297.0000207424164, 0,  0, 180
-211.16600930690765,2.090522786602378,298.0000078678131, 0,  0, 180
-214.21898901462555,2.097537973895669,299.0000247955322, 0,  0, 180
-218.73623132705688,2.1185835357755423,302.0000159740448, 0,  0, 180
-221.83623909950256,2.1255984902381897,303.0000030994415, 0,  0, 180
-225.69191455841064,2.139628864824772,305.0000071525574, 0,  0, 180
-228.08332741260529,2.139628864824772,305.0000071525574, 0,  0, 180
-231.98606073856354,2.153659239411354,307.0000112056732, 0,  0, 180
-237.44714260101318,2.1817199885845184,311.0000193119049, 0,  0, 180
-241.42827093601227,2.1957503631711006,313.00002336502075, 0,  0, 180
-246.2199330329895,2.216795925050974,316.0000145435333, 0,  0, 180
-585.4154229164124 ,8.58669076114893 ,578.000009059906, 0, 0, 180
-579.878568649292 ,8.571834303438663 ,577.0000219345093, 0, 0, 180
-577.3488283157349 ,8.601547218859196 ,579.0000557899475, 0, 0, 180
-575.7769346237183 ,8.64611379802227 ,582.0000171661377, 0, 0, 180
-571.2136626243591 ,8.64611379802227 ,582.0000171661377, 0, 0, 180
-562.755823135376 ,8.58669076114893 ,578.000009059906, 0, 0, 180
-554.3608069419861 ,8.527266792953014 ,574.0000009536743, 0, 0, 180
-241.7071908712387 ,4.664741922169924 ,314.0000104904175, 0, 0, 180
-233.76688361167908 ,4.605318419635296 ,310.0000023841858, 0, 0, 180
-229.84379529953003 ,4.575606901198626 ,308.00002813339233, 0, 0, 180
-225.95205903053284 ,4.545895382761955 ,306.0000240802765, 0, 0, 180
-222.82221913337708 ,4.531038925051689 ,305.0000071525574, 0, 0, 180
-218.98536384105682 ,4.501327406615019 ,303.0000030994415, 0, 0, 180
-215.17989039421082 ,4.4716158881783485 ,301.00002884864807, 0, 0, 180
-212.11279928684235 ,4.45675989612937 ,300.00001192092896, 0, 0, 180
-209.061399102211 ,4.441903904080391 ,299.0000247955322, 0, 0, 180
-206.02566003799438 ,4.427047912031412 ,298.0000078678131, 0, 0, 180
-203.0056118965149 ,4.412192385643721 ,297.0000207424164, 0, 0, 180
-200.00123977661133 ,4.397336393594742 ,296.00000381469727, 0, 0, 180
-197.01257348060608 ,4.382480401545763 ,295.00001668930054, 0, 0, 180
-194.03955340385437 ,4.367624409496784 ,293.9999997615814, 0, 0, 180
-191.08223915100098 ,4.352768883109093 ,293.0000126361847, 0, 0, 180
-188.1406009197235 ,4.337912891060114 ,292.00002551078796, 0, 0, 180
-185.85112690925598 ,4.337912891060114 ,292.00002551078796, 0, 0, 180
-182.9330027103424 ,4.323056899011135 ,291.00000858306885, 0, 0, 180
-180.65135180950165 ,4.323056899011135 ,291.00000858306885, 0, 0, 180
-178.36971580982208 ,4.323056899011135 ,291.00000858306885, 0, 0, 180
-176.0880947113037 ,4.323056899011135 ,291.00000858306885, 0, 0, 180
-173.80644381046295 ,4.323056899011135 ,291.00000858306885, 0, 0, 180
-171.5248078107834 ,4.323056899011135 ,291.00000858306885, 0, 0, 180
-169.24315690994263 ,4.323056899011135 ,291.00000858306885, 0, 0, 180
-166.38778150081635 ,4.308201372623444 ,290.0000214576721, 0, 0, 180
-164.11396861076355 ,4.308201372623444 ,290.0000214576721, 0, 0, 180
-161.84017062187195 ,4.308201372623444 ,290.0000214576721, 0, 0, 180
-159.56637263298035 ,4.308201372623444 ,290.0000214576721, 0, 0, 180
-157.8349471092224 ,4.323056899011135 ,291.00000858306885, 0, 0, 180
-155.55331110954285 ,4.323056899011135 ,291.00000858306885, 0, 0, 180
-153.27167510986328 ,4.323056899011135 ,291.00000858306885, 0, 0, 180
-150.99002420902252 ,4.323056899011135 ,291.00000858306885, 0, 0, 180
-148.19736778736115 ,4.308201372623444 ,290.0000214576721, 0, 0, 180
-146.4267522096634 ,4.323056899011135 ,291.00000858306885, 0, 0, 180
-144.14511620998383 ,4.323056899011135 ,291.00000858306885, 0, 0, 180
-142.35098659992218 ,4.337912891060114 ,292.00002551078796, 0, 0, 180
-140.54115116596222 ,4.352768883109093 ,293.0000126361847, 0, 0, 180
-138.71565461158752 ,4.367624409496784 ,293.9999997615814, 0, 0, 180
-136.8744820356369 ,4.382480401545763 ,295.00001668930054, 0, 0, 180
-134.5614790916443 ,4.382480401545763 ,295.00001668930054, 0, 0, 180
-132.69676268100739 ,4.397336393594742 ,296.00000381469727, 0, 0, 180
-130.81638514995575 ,4.412192385643721 ,297.0000207424164, 0, 0, 180
-128.920316696167 ,4.427047912031412 ,298.0000078678131, 0, 0, 180
-127.00857222080231 ,4.441903904080391 ,299.0000247955322, 0, 0, 180
-125.0811517238617 ,4.45675989612937 ,300.00001192092896, 0, 0, 180
-123.13804030418396 ,4.4716158881783485 ,301.00002884864807, 0, 0, 180
-121.1792454123497 ,4.48647141456604 ,302.0000159740448, 0, 0, 180
-119.59818750619888 ,4.516183398663998 ,304.00002002716064, 0, 0, 180
-117.98577010631561 ,4.545895382761955 ,306.0000240802765, 0, 0, 180
-115.96424132585526 ,4.560750909149647 ,307.0000112056732, 0, 0, 180
-113.92705887556076 ,4.575606901198626 ,308.00002813339233, 0, 0, 180
-112.9603236913681 ,4.635029938071966 ,312.00000643730164, 0, 0, 180
-111.22245341539383 ,4.664741922169924 ,314.0000104904175, 0, 0, 180
-109.4532236456871 ,4.694453906267881 ,316.0000145435333, 0, 0, 180
-107.99115151166916 ,4.739020951092243 ,319.0000057220459, 0, 0, 180
-106.8127304315567 ,4.798444919288158 ,323.0000138282776, 0, 0, 180
-105.57158291339874 ,4.857868421822786 ,327.0000219345093, 0, 0, 180
-103.95270586013794 ,4.902435932308435 ,330.00001311302185, 0, 0, 180
-103.51545363664627 ,5.0064269453287125 ,337.0000123977661, 0, 0, 180
-101.77111625671387 ,5.050994455814362 ,340.0000035762787, 0, 0, 180
-99.10527616739273 ,5.050994455814362 ,340.0000035762787, 0, 0, 180
-99.6384471654892,7.716828025877476,340.0000035762787, 0,  0, 180
-102.30427980422974,7.716828025877476,340.0000035762787, 0,  0, 180
-104.66139018535614,7.6941316947340965,339.00001645088196, 0,  0, 180
-106.36965185403824,7.626042235642672,336.0000252723694, 0,  0, 180
-106.73320293426514,7.467166520655155,329.0000259876251, 0,  0, 180
-107.98375308513641,7.376380264759064,325.00001788139343, 0,  0, 180
-109.17158424854279,7.285593543201685,321.00000977516174, 0,  0, 180
-110.99256575107574,7.240200415253639,319.0000057220459, 0,  0, 180
-112.42641508579254,7.172110956162214,316.0000145435333, 0,  0, 180
-114.5404577255249,7.149414625018835,315.0000274181366, 0,  0, 180
-115.15294760465622,7.035931572318077,310.0000023841858, 0,  0, 180
-116.82496964931488,6.990538910031319,308.00002813339233, 0,  0, 180
-119.23990398645401,6.990538910031319,308.00002813339233, 0,  0, 180
-121.25984579324722,6.967842113226652,307.0000112056732, 0,  0, 180
-122.86128848791122,6.922448985278606,305.0000071525574, 0,  0, 180
-124.43137168884277,6.877055391669273,303.0000030994415, 0,  0, 180
-125.97009539604187,6.831663195043802,301.00002884864807, 0,  0, 180
-128.33014130592346,6.831663195043802,301.00002884864807, 0,  0, 180
-130.25599718093872,6.808965932577848,300.00001192092896, 0,  0, 180
-132.16617703437805,6.7862700670957565,299.0000247955322, 0,  0, 180
-133.6108148097992,6.7408764734864235,297.0000207424164, 0,  0, 180
-135.48177480697632,6.718179676681757,296.00000381469727, 0,  0, 180
-137.3370885848999,6.695483345538378,295.00001668930054, 0,  0, 180
-139.17669653892517,6.672786548733711,293.9999997615814, 0,  0, 180
-141.00061357021332,6.650090217590332,293.0000126361847, 0,  0, 180
-143.29794049263,6.650090217590332,293.0000126361847, 0,  0, 180
-145.5952674150467,6.650090217590332,293.0000126361847, 0,  0, 180
-147.89257943630219,6.650090217590332,293.0000126361847, 0,  0, 180
-150.18990635871887,6.650090217590332,293.0000126361847, 0,  0, 180
-151.96679532527924,6.627393886446953,292.00002551078796, 0,  0, 180
-154.25628423690796,6.627393886446953,292.00002551078796, 0,  0, 180
-156.5457582473755,6.627393886446953,292.00002551078796, 0,  0, 180
-158.8352471590042,6.627393886446953,292.00002551078796, 0,  0, 180
-160.57293117046356,6.604697089642286,291.00000858306885, 0,  0, 180
-162.85456717014313,6.604697089642286,291.00000858306885, 0,  0, 180
-165.1362031698227,6.604697089642286,291.00000858306885, 0,  0, 180
-167.99317300319672,6.627393886446953,292.00002551078796, 0,  0, 180
-170.28266191482544,6.627393886446953,292.00002551078796, 0,  0, 180
-172.57213592529297,6.627393886446953,292.00002551078796, 0,  0, 180
-174.8616248369217,6.627393886446953,292.00002551078796, 0,  0, 180
-177.75778472423553,6.650090217590332,293.0000126361847, 0,  0, 180
-179.44057285785675,6.627393886446953,292.00002551078796, 0,  0, 180
-182.35240876674652,6.650090217590332,293.0000126361847, 0,  0, 180
-184.6497356891632,6.650090217590332,293.0000126361847, 0,  0, 180
-186.9470626115799,6.650090217590332,293.0000126361847, 0,  0, 180
-189.2443746328354,6.650090217590332,293.0000126361847, 0,  0, 180
-192.84915924072266,6.695483345538378,295.00001668930054, 0,  0, 180
-195.82371413707733,6.718179676681757,296.00000381469727, 0,  0, 180
-198.81398975849152,6.7408764734864235,297.0000207424164, 0,  0, 180
-204.84153926372528,6.7862700670957565,299.0000247955322, 0,  0, 180
-207.87882804870605,6.808965932577848,300.00001192092896, 0,  0, 180
-210.93180775642395,6.831663195043802,301.00002884864807, 0,  0, 180
-214.00046348571777,6.8543595261871815,302.0000159740448, 0,  0, 180
-217.80124306678772,6.899752654135227,304.00002002716064, 0,  0, 180
-220.90908885002136,6.922448985278606,305.0000071525574, 0,  0, 180
-224.0326553583145,6.945145782083273,306.0000240802765, 0,  0, 180
