-394.5126533508301 ,-431.266188621521 ,1193.000078201294, 0, 0, 180
-382.5759291648865 ,-428.37420105934143 ,1185.0000619888306, 0, 0, 180
-372.0247149467468 ,-426.92822217941284 ,1181.0001134872437, 0, 0, 180
-362.45766282081604 ,-426.5667200088501 ,1180.0000667572021, 0, 0, 180
-353.2056510448456 ,-426.5667200088501 ,1180.0000667572021, 0, 0, 180
-344.24513578414917 ,-426.92822217941284 ,1181.0001134872437, 0, 0, 180
-331.8651616573334 ,-422.95175790786743 ,1170.0000762939453, 0, 0, 180
-320.76093554496765 ,-420.4212725162506 ,1163.0001068115234, 0, 0, 180
-310.5703294277191 ,-418.97526383399963 ,1159.000039100647, 0, 0, 180
-302.00323462486267 ,-419.69823837280273 ,1161.0000133514404, 0, 0, 180
-293.15248131752014 ,-420.05977034568787 ,1162.000060081482, 0, 0, 180
-284.77492928504944 ,-421.1442470550537 ,1165.000081062317, 0, 0, 180
-276.11371874809265 ,-421.8672513961792 ,1167.0000553131104, 0, 0, 180
-266.9636309146881 ,-421.8672513961792 ,1167.0000553131104, 0, 0, 180
-258.25539231300354 ,-422.5902259349823 ,1169.0000295639038, 0, 0, 180
-248.4503835439682 ,-421.50571942329407 ,1166.0000085830688, 0, 0, 180
-239.30813372135162 ,-421.50571942329407 ,1166.0000085830688, 0, 0, 180
-230.75810074806213 ,-422.5902259349823 ,1169.0000295639038, 0, 0, 180
-221.2132215499878 ,-421.8672513961792 ,1167.0000553131104, 0, 0, 180
-212.42655813694 ,-422.5902259349823 ,1169.0000295639038, 0, 0, 180
-204.13018763065338 ,-424.39770698547363 ,1174.0000247955322, 0, 0, 180
-195.5893635749817 ,-425.8437156677246 ,1178.0000925064087, 0, 0, 180
-186.66940927505493 ,-426.5667200088501 ,1180.0000667572021, 0, 0, 180
-179.22163009643555 ,-430.90465664863586 ,1192.0000314712524, 0, 0, 180
-171.7282086610794 ,-435.60412526130676 ,1205.0000429153442, 0, 0, 180
-159.72141921520233 ,-428.7357032299042 ,1186.000108718872, 0, 0, 180
-145.85641026496887 ,-415.7218039035797 ,1150.0000953674316, 0, 0, 180
-147.6597636938095,-406.70502185821533,1150.0000953674316, 0,  0, 180
-159.53759849071503,-414.131760597229,1171.0000038146973, 0,  0, 180
-170.15989124774933,-417.6683723926544,1181.0001134872437, 0,  0, 180
-178.6600947380066,-415.9000515937805,1175.9999990463257, 0,  0, 180
-188.20029497146606,-416.6073799133301,1178.0000925064087, 0,  0, 180
-197.4366307258606,-416.6073799133301,1178.0000925064087, 0,  0, 180
-205.26939630508423,-413.7781262397766,1170.0000762939453, 0,  0, 180
-214.626282453537,-414.131760597229,1171.0000038146973, 0,  0, 180
-224.76336359977722,-415.9000515937805,1175.9999990463257, 0,  0, 180
-234.38195884227753,-416.6073799133301,1178.0000925064087, 0,  0, 180
-243.20465326309204,-415.9000515937805,1175.9999990463257, 0,  0, 180
-252.8546154499054,-416.6073799133301,1178.0000925064087, 0,  0, 180
-260.08856296539307,-413.42446208000183,1169.0000295639038, 0,  0, 180
-268.56330037117004,-412.3634696006775,1166.0000085830688, 0,  0, 180
-288.07786107063293,-414.131760597229,1171.0000038146973, 0,  0, 180
-297.00547456741333,-413.7781262397766,1170.0000762939453, 0,  0, 180
-315.0831162929535,-413.42446208000183,1169.0000295639038, 0,  0, 180
-326.1905014514923,-415.9000515937805,1175.9999990463257, 0,  0, 180
-352.25123167037964,-425.0951111316681,1202.0000219345093, 0,  0, 180
-360.472172498703,-423.68051409721375,1198.0000734329224, 0,  0, 180
-366.16051197052,-419.43663358688354,1186.000108718872, 0,  0, 180
-375.1429617404938,-419.08296942710876,1185.0000619888306, 0,  0, 180
-384.7585916519165,-419.43663358688354,1186.000108718872, 0,  0, 180
-394.7221636772156,-420.1439619064331,1188.0000829696655, 0,  0, 180
-405.3972661495209,-421.55855894088745,1192.0000314712524, 0,  0, 180
-414.7433936595917,-421.55855894088745,1192.0000314712524, 0,  0, 180
-421.95484042167664,-419.43663358688354,1186.000108718872, 0,  0, 180
-429.07217144966125,-417.31470823287964,1180.0000667572021, 0,  0, 180
-439.80997800827026,-418.729305267334,1184.000015258789, 0,  0, 180
-449.0933418273926,-418.729305267334,1184.000015258789, 0,  0, 180
-456.0539126396179,-416.6073799133301,1178.0000925064087, 0,  0, 180
-465.29024839401245,-416.6073799133301,1178.0000925064087, 0,  0, 180
-471.3039994239807,-413.7781262397766,1170.0000762939453, 0,  0, 180
-477.1922826766968,-410.94887256622314,1162.000060081482, 0,  0, 180
-484.21064019203186,-409.18058156967163,1157.0000648498535, 0,  0, 180
-492.0032322406769,-408.1196188926697,1154.0000438690186, 0,  0, 180
-500.61720609664917,-407.7659547328949,1152.999997138977, 0,  0, 180
-509.65750217437744,-407.7659547328949,1152.999997138977, 0,  0, 180
-520.9472179412842,-409.5342755317688,1158.000111579895, 0,  0, 180
-531.8575501441956,-410.94887256622314,1162.000060081482, 0,  0, 180
-540.9684181213379,-410.94887256622314,1162.000060081482, 0,  0, 180
-549.6059060096741,-410.59520840644836,1161.0000133514404, 0,  0, 180
-552.9341697692871,-406.35132789611816,1149.0000486373901, 0,  0, 180
-559.0086579322815,-404.22937273979187,1143.0000066757202, 0,  0, 180
-570.4551339149475,-405.9976637363434,1148.0000019073486, 0,  0, 180
-581.4752578735352,-407.4123203754425,1152.000069618225, 0,  0, 180
-591.0202860832214,-407.7659547328949,1152.999997138977, 0,  0, 180
-597.978949546814,-406.35132789611816,1149.0000486373901, 0,  0, 180
-603.8181781768799,-404.22937273979187,1143.0000066757202, 0,  0, 180
-862.8090620040894,-412.3634696006775,1166.0000085830688, 0,  0, 180
-859.9863648414612,-406.70502185821533,1150.0000953674316, 0,  0, 180
-869.003176689148,-406.70502185821533,1150.0000953674316, 0,  0, 180
-881.0738921165466,-408.1196188926697,1154.0000438690186, 0,  0, 180
-888.5794281959534,-407.4123203754425,1152.000069618225, 0,  0, 180
-891.3784623146057,-404.58306670188904,1144.0000534057617, 0,  0, 180
-899.5611667633057,-404.22937273979187,1143.0000066757202, 0,  0, 180
-910.1128578186035,-404.9367308616638,1145.0001001358032, 0,  0, 180
-917.4849987030029,-404.22937273979187,1143.0000066757202, 0,  0, 180
-924.8258471488953,-403.5220742225647,1141.0000324249268, 0,  0, 180
-928.8617968559265,-401.4001786708832,1135.0001096725464, 0,  0, 180
-933.6298108100891,-399.6318578720093,1129.9999952316284, 0,  0, 180
-951.6644477844238,-403.5220742225647,1141.0000324249268, 0,  0, 180
-969.8716402053833,-407.4123203754425,1152.000069618225, 0,  0, 180
-980.6036353111267,-408.1196188926697,1154.0000438690186, 0,  0, 180
-977.6456356048584,-403.1684398651123,1140.0001049041748, 0,  0, 180
-982.2568893432617,-401.4001786708832,1135.0001096725464, 0,  0, 180
-995.5224394798279,-403.1684398651123,1140.0001049041748, 0,  0, 180
-1012.3907327651978,-406.35132789611816,1149.0000486373901, 0,  0, 180
-1026.7333984375,-408.47328305244446,1155.00009059906, 0,  0, 180
-1030.4086208343506,-406.35132789611816,1149.0000486373901, 0,  0, 180
-1027.657389640808,-401.7537832260132,1136.0000371932983, 0,  0, 180
-1031.0895442962646,-399.6318578720093,1129.9999952316284, 0,  0, 180
-1043.630838394165,-401.046484708786,1134.0000629425049, 0,  0, 180
-1070.7733631134033,-404.58306670188904,1144.0000534057617, 0,  0, 180
-1098.2296466827393,-408.1196188926697,1154.0000438690186, 0,  0, 180
-1112.0753288269043,-409.8879098892212,1159.000039100647, 0,  0, 180
-1119.2280054092407,-409.18058156967163,1157.0000648498535, 0,  0, 180
-1114.6469116210938,-404.22937273979187,1143.0000066757202, 0,  0, 180
-1111.8124723434448,-399.98552203178406,1131.00004196167, 0,  0, 180
-1119.6893453598022,-399.6318578720093,1129.9999952316284, 0,  0, 180
-1142.531394958496,-404.58306670188904,1144.0000534057617, 0,  0, 180
-1153.5141468048096,-405.2903652191162,1146.0000276565552, 0,  0, 180
-1154.625654220581 ,-394.23006772994995 ,1140.0001049041748, 0, 0, 180
-1142.6723003387451 ,-393.1925892829895 ,1137.0000839233398, 0, 0, 180
-1125.7802248001099 ,-390.42606949806213 ,1129.0000677108765, 0, 0, 180
-1109.0136766433716 ,-387.65954971313477 ,1121.000051498413, 0, 0, 180
-1104.1500568389893 ,-389.04279470443726 ,1125.0, 0, 0, 180
-1109.9337339401245 ,-394.23006772994995 ,1140.0001049041748, 0, 0, 180
-1109.687328338623 ,-397.34238386154175 ,1149.0000486373901, 0, 0, 180
-1100.6784439086914 ,-397.34238386154175 ,1149.0000486373901, 0, 0, 180
-1092.6196575164795 ,-397.68821001052856 ,1150.0000953674316, 0, 0, 180
-1081.7182064056396 ,-396.99655771255493 ,1148.0000019073486, 0, 0, 180
-1065.241813659668 ,-394.23006772994995 ,1140.0001049041748, 0, 0, 180
-1047.964096069336 ,-391.1176919937134 ,1131.00004196167, 0, 0, 180
-1035.4214906692505 ,-389.7344470024109 ,1127.000093460083, 0, 0, 180
-1023.8522291183472 ,-388.6969983577728 ,1124.000072479248, 0, 0, 180
-1015.9423351287842 ,-389.04279470443726 ,1125.0, 0, 0, 180
-1025.0259637832642 ,-395.95913887023926 ,1145.0001001358032, 0, 0, 180
-1020.4852819442749 ,-397.68821001052856 ,1150.0000953674316, 0, 0, 180
-1001.7935037612915 ,-393.88421177864075 ,1139.0000581741333, 0, 0, 180
-989.3762469291687 ,-392.50096678733826 ,1135.0001096725464, 0, 0, 180
-983.9324355125427 ,-393.88421177864075 ,1139.0000581741333, 0, 0, 180
-992.122232913971 ,-400.80052614212036 ,1159.000039100647, 0, 0, 180
-991.5165901184082 ,-404.25869822502136 ,1169.0000295639038, 0, 0, 180
-980.670154094696 ,-403.5670757293701 ,1167.0000553131104, 0, 0, 180
-956.5352201461792 ,-397.34238386154175 ,1149.0000486373901, 0, 0, 180
-922.7866530418396 ,-386.9679272174835 ,1119.0000772476196, 0, 0, 180
-906.6616296768188 ,-383.85555148124695 ,1110.0000143051147, 0, 0, 180
-906.8571925163269 ,-387.65954971313477 ,1121.000051498413, 0, 0, 180
-917.294979095459 ,-395.95913887023926 ,1145.0001001358032, 0, 0, 180
-908.3173274993896 ,-395.95913887023926 ,1145.0001001358032, 0, 0, 180
-896.1979150772095 ,-394.575834274292 ,1141.0000324249268, 0, 0, 180
-896.5829610824585 ,-398.72562885284424 ,1152.999997138977, 0, 0, 180
-892.1612501144409 ,-400.80052614212036 ,1159.000039100647, 0, 0, 180
-877.7404427528381 ,-398.3798325061798 ,1152.000069618225, 0, 0, 180
-863.4293675422668 ,-395.95913887023926 ,1145.0001001358032, 0, 0, 180
-861.9142174720764 ,-399.41728115081787 ,1155.00009059906, 0, 0, 180
-868.364691734314 ,-406.6793918609619 ,1175.9999990463257, 0, 0, 180
-600.9724140167236 ,-394.575834274292 ,1141.0000324249268, 0, 0, 180
-596.1771011352539 ,-397.34238386154175 ,1149.0000486373901, 0, 0, 180
-587.6792073249817 ,-397.68821001052856 ,1150.0000953674316, 0, 0, 180
-578.1592130661011 ,-397.34238386154175 ,1149.0000486373901, 0, 0, 180
-569.1502690315247 ,-397.34238386154175 ,1149.0000486373901, 0, 0, 180
-563.0663633346558 ,-399.41728115081787 ,1155.00009059906, 0, 0, 180
-562.6443028450012 ,-405.64197301864624 ,1173.0000972747803, 0, 0, 180
-561.9400143623352 ,-411.8666648864746 ,1191.0001039505005, 0, 0, 180
-546.5700030326843 ,-407.37104415893555 ,1178.0000925064087, 0, 0, 180
-528.2108187675476 ,-400.45472979545593 ,1158.000111579895, 0, 0, 180
-514.6482586860657 ,-396.99655771255493 ,1148.0000019073486, 0, 0, 180
-503.88532876968384 ,-395.61331272125244 ,1144.0000534057617, 0, 0, 180
-495.3482151031494 ,-395.95913887023926 ,1145.0001001358032, 0, 0, 180
-488.49451541900635 ,-397.68821001052856 ,1150.0000953674316, 0, 0, 180
-481.56243562698364 ,-399.41728115081787 ,1155.00009059906, 0, 0, 180
-475.3701090812683 ,-401.8379747867584 ,1162.000060081482, 0, 0, 180
-469.8704779148102 ,-404.9503207206726 ,1171.0000038146973, 0, 0, 180
-463.0495607852936 ,-407.02521800994873 ,1177.0000457763672, 0, 0, 180
-453.4354507923126 ,-406.6793918609619 ,1175.9999990463257, 0, 0, 180
-443.4593617916107 ,-405.98776936531067 ,1174.0000247955322, 0, 0, 180
-433.1447184085846 ,-404.9503207206726 ,1171.0000038146973, 0, 0, 180
-425.7735311985016 ,-406.6793918609619 ,1175.9999990463257, 0, 0, 180
-420.0950264930725 ,-410.1375937461853 ,1186.000108718872, 0, 0, 180
-410.1032018661499 ,-409.4459116458893 ,1184.000015258789, 0, 0, 180
-397.09600806236267 ,-405.64197301864624 ,1173.0000972747803, 0, 0, 180
-385.91471314430237 ,-403.5670757293701 ,1167.0000553131104, 0, 0, 180
-377.41032242774963 ,-404.25869822502136 ,1169.0000295639038, 0, 0, 180
-368.5595989227295 ,-404.6045243740082 ,1170.0000762939453, 0, 0, 180
-360.6146574020386 ,-405.98776936531067 ,1174.0000247955322, 0, 0, 180
-353.5049855709076 ,-408.408522605896 ,1181.0001134872437, 0, 0, 180
-344.24513578414917 ,-408.408522605896 ,1181.0001134872437, 0, 0, 180
-334.70162749290466 ,-408.0626666545868 ,1180.0000667572021, 0, 0, 180
-323.5189616680145 ,-405.64197301864624 ,1173.0000972747803, 0, 0, 180
-311.64219975471497 ,-402.1838307380676 ,1163.0001068115234, 0, 0, 180
-301.22289061546326 ,-400.45472979545593 ,1158.000111579895, 0, 0, 180
-295.17075419425964 ,-404.6045243740082 ,1170.0000762939453, 0, 0, 180
-285.75268387794495 ,-404.25869822502136 ,1169.0000295639038, 0, 0, 180
-274.9307155609131 ,-401.8379747867584 ,1162.000060081482, 0, 0, 180
-266.5061056613922 ,-402.8754532337189 ,1165.000081062317, 0, 0, 180
-259.1390907764435 ,-405.64197301864624 ,1173.0000972747803, 0, 0, 180
-251.0073482990265 ,-407.37104415893555 ,1178.0000925064087, 0, 0, 180
-241.77101254463196 ,-407.37104415893555 ,1178.0000925064087, 0, 0, 180
-232.33728110790253 ,-407.02521800994873 ,1177.0000457763672, 0, 0, 180
-221.7818945646286 ,-404.6045243740082 ,1170.0000762939453, 0, 0, 180
-211.88141405582428 ,-403.2212197780609 ,1166.0000085830688, 0, 0, 180
-202.9130607843399 ,-403.5670757293701 ,1167.0000553131104, 0, 0, 180
-195.2572762966156 ,-406.6793918609619 ,1175.9999990463257, 0, 0, 180
-185.24564802646637 ,-404.9503207206726 ,1171.0000038146973, 0, 0, 180
-174.71101880073547 ,-401.8379747867584 ,1162.000060081482, 0, 0, 180
-164.3175333738327 ,-398.72562885284424 ,1152.999997138977, 0, 0, 180
-154.60385382175446 ,-396.99655771255493 ,1148.0000019073486, 0, 0, 180
-145.34907042980194 ,-396.3049352169037 ,1146.0000276565552, 0, 0, 180
-147.6597636938095,-388.6714279651642,1150.0000953674316, 0,  0, 180
-157.35776722431183,-390.3612792491913,1155.00009059906, 0,  0, 180
-167.4223393201828,-392.7271068096161,1162.000060081482, 0,  0, 180
-176.98897421360016,-393.74104142189026,1165.000081062317, 0,  0, 180
-184.20621752738953,-389.6853029727936,1152.999997138977, 0,  0, 180
-190.90010225772858,-384.95367765426636,1139.0000581741333, 0,  0, 180
-200.1815140247345,-385.6296241283417,1141.0000324249268, 0,  0, 180
-212.06030249595642,-391.0372257232666,1157.0000648498535, 0,  0, 180
-223.04323315620422,-394.4169878959656,1167.0000553131104, 0,  0, 180
-231.1985045671463,-392.7271068096161,1162.000060081482, 0,  0, 180
-238.86172473430634,-390.3612792491913,1155.00009059906, 0,  0, 180
-249.2055892944336,-392.38911867141724,1161.0000133514404, 0,  0, 180
-257.6411962509155,-391.37521386146545,1158.000111579895, 0,  0, 180
-266.4903700351715,-391.0372257232666,1157.0000648498535, 0,  0, 180
-275.0857174396515,-390.3612792491913,1155.00009059906, 0,  0, 180
-285.125732421875,-391.7131721973419,1159.000039100647, 0,  0, 180
-300.9452521800995,-388.6714279651642,1150.0000953674316, 0,  0, 180
-332.27381110191345,-393.74104142189026,1165.000081062317, 0,  0, 180
-339.64988589286804,-391.7131721973419,1159.000039100647, 0,  0, 180
-348.4363853931427,-391.37521386146545,1158.000111579895, 0,  0, 180
-357.20714926719666,-391.0372257232666,1157.0000648498535, 0,  0, 180
-366.91197752952576,-391.7131721973419,1159.000039100647, 0,  0, 180
-376.6481280326843,-392.38911867141724,1161.0000133514404, 0,  0, 180
-386.4157199859619,-393.06509494781494,1163.0001068115234, 0,  0, 180
-395.5344557762146,-393.06509494781494,1163.0001068115234, 0,  0, 180
-407.0887565612793,-395.43092250823975,1170.0000762939453, 0,  0, 180
-416.61810874938965,-395.7688510417938,1171.0000038146973, 0,  0, 180
-425.0723421573639,-395.0929045677185,1169.0000295639038, 0,  0, 180
-432.75225162506104,-393.74104142189026,1165.000081062317, 0,  0, 180
-441.88663363456726,-393.74104142189026,1165.000081062317, 0,  0, 180
-451.7953395843506,-394.4169878959656,1167.0000553131104, 0,  0, 180
-462.1303677558899,-395.43092250823975,1170.0000762939453, 0,  0, 180
-471.7067778110504,-395.7688510417938,1171.0000038146973, 0,  0, 180
-480.0669252872467,-395.0929045677185,1169.0000295639038, 0,  0, 180
-483.37364196777344,-390.3612792491913,1155.00009059906, 0,  0, 180
-487.3134195804596,-386.305570602417,1143.0000066757202, 0,  0, 180
-494.972825050354,-385.2916657924652,1140.0001049041748, 0,  0, 180
-504.35322523117065,-385.6296241283417,1141.0000324249268, 0,  0, 180
-517.3482894897461,-388.6714279651642,1150.0000953674316, 0,  0, 180
-531.8575501441956,-392.7271068096161,1162.000060081482, 0,  0, 180
-547.4861264228821,-397.4587321281433,1175.9999990463257, 0,  0, 180
-557.6536059379578,-398.134708404541,1178.0000925064087, 0,  0, 180
-558.708906173706,-392.38911867141724,1161.0000133514404, 0,  0, 180
-559.9868893623352,-386.9815468788147,1145.0001001358032, 0,  0, 180
-566.97678565979,-385.6296241283417,1141.0000324249268, 0,  0, 180
-578.4467458724976,-387.31950521469116,1146.0000276565552, 0,  0, 180
-586.9196057319641,-386.9815468788147,1145.0001001358032, 0,  0, 180
-592.7745699882507,-384.95367765426636,1139.0000581741333, 0,  0, 180
-870.948851108551,-397.79672026634216,1177.0000457763672, 0,  0, 180
-865.2210235595703,-391.0372257232666,1157.0000648498535, 0,  0, 180
-871.2700605392456,-389.6853029727936,1152.999997138977, 0,  0, 180
-884.8913908004761,-391.7131721973419,1159.000039100647, 0,  0, 180
-896.2928056716919,-392.7271068096161,1162.000060081482, 0,  0, 180
-901.5077948570251,-391.0372257232666,1157.0000648498535, 0,  0, 180
-897.9871273040771,-385.6296241283417,1141.0000324249268, 0,  0, 180
-905.3437113761902,-384.95367765426636,1139.0000581741333, 0,  0, 180
-912.6688838005066,-384.27773118019104,1137.0000839233398, 0,  0, 180
-903.751790523529,-376.8422603607178,1115.0000095367432, 0,  0, 180
-907.5838923454285,-374.8144209384918,1109.0000867843628, 0,  0, 180
-961.6732001304626,-389.6853029727936,1152.999997138977, 0,  0, 180
-977.4487614631653,-392.38911867141724,1161.0000133514404, 0,  0, 180
-987.40154504776,-392.7271068096161,1162.000060081482, 0,  0, 180
-995.654821395874,-392.38911867141724,1161.0000133514404, 0,  0, 180
-993.5073256492615,-387.9954218864441,1148.0000019073486, 0,  0, 180
-995.5224394798279,-385.2916657924652,1140.0001049041748, 0,  0, 180
-1004.4608116149902,-385.2916657924652,1140.0001049041748, 0,  0, 180
-1016.9548988342285,-386.64355874061584,1144.0000534057617, 0,  0, 180
-1015.1633024215698,-382.58785009384155,1132.0000886917114, 0,  0, 180
-1014.9927139282227,-379.20811772346497,1122.0000982284546, 0,  0, 180
-1028.3522605895996,-380.89799880981445,1127.000093460083, 0,  0, 180
-1037.1887683868408,-380.89799880981445,1127.000093460083, 0,  0, 180
-1043.2406663894653,-379.8840641975403,1124.000072479248, 0,  0, 180
-1056.7336082458496,-381.5739154815674,1129.0000677108765, 0,  0, 180
-1073.136329650879,-384.27773118019104,1137.0000839233398, 0,  0, 180
-1088.7129306793213,-386.64355874061584,1144.0000534057617, 0,  0, 180
-1093.8446521759033,-385.2916657924652,1140.0001049041748, 0,  0, 180
-1095.0442552566528,-382.58785009384155,1132.0000886917114, 0,  0, 180
-1101.9693613052368,-381.91187381744385,1129.9999952316284, 0,  0, 180
-1106.897234916687,-380.5599808692932,1126.0000467300415, 0,  0, 180
-1111.7624044418335,-379.20811772346497,1122.0000982284546, 0,  0, 180
-1119.560956954956,-378.8701295852661,1121.000051498413, 0,  0, 180
-1134.3896389007568,-380.89799880981445,1127.000093460083, 0,  0, 180
-1144.497275352478 ,-373.05188179016113 ,1129.9999952316284, 0, 0, 180
-1134.6324682235718 ,-372.721791267395 ,1129.0000677108765, 0, 0, 180
-1121.7916011810303 ,-371.40122056007385 ,1125.0, 0, 0, 180
-1118.9067363739014 ,-373.382031917572 ,1131.00004196167, 0, 0, 180
-1121.8165159225464 ,-377.34365463256836 ,1143.0000066757202, 0, 0, 180
-1112.8545999526978 ,-377.34365463256836 ,1143.0000066757202, 0, 0, 180
-1100.995421409607 ,-376.35326385498047 ,1140.0001049041748, 0, 0, 180
-1092.0569896697998 ,-376.35326385498047 ,1140.0001049041748, 0, 0, 180
-1082.168459892273 ,-376.0231137275696 ,1139.0000581741333, 0, 0, 180
-1068.5266256332397 ,-374.3724524974823 ,1134.0000629425049, 0, 0, 180
-1059.6352815628052 ,-374.3724524974823 ,1134.0000629425049, 0, 0, 180
-1047.0374822616577 ,-373.05188179016113 ,1129.9999952316284, 0, 0, 180
-1034.502625465393 ,-371.73137068748474 ,1126.0000467300415, 0, 0, 180
-1028.4067392349243 ,-372.721791267395 ,1129.0000677108765, 0, 0, 180
-1022.263765335083 ,-373.7121820449829 ,1132.0000886917114, 0, 0, 180
-1016.9689655303955 ,-375.0327229499817 ,1136.0000371932983, 0, 0, 180
-1007.1746110916138 ,-374.7026026248932 ,1135.0001096725464, 0, 0, 180
-999.1549253463745 ,-375.0327229499817 ,1136.0000371932983, 0, 0, 180
-996.3497519493103 ,-377.34365463256836 ,1143.0000066757202, 0, 0, 180
-995.1626062393188 ,-380.3148865699768 ,1152.000069618225, 0, 0, 180
-984.4180941581726 ,-379.6546161174774 ,1150.0000953674316, 0, 0, 180
-954.6197652816772 ,-375.0327229499817 ,1136.0000371932983, 0, 0, 180
-939.8853182792664 ,-372.721791267395 ,1129.0000677108765, 0, 0, 180
-923.6112833023071 ,-369.7505593299866 ,1120.0000047683716, 0, 0, 180
-910.7456803321838 ,-368.0998980998993 ,1115.0000095367432, 0, 0, 180
-910.9020233154297 ,-371.73137068748474 ,1126.0000467300415, 0, 0, 180
-909.2836380004883 ,-374.7026026248932 ,1135.0001096725464, 0, 0, 180
-901.9710421562195 ,-375.3628730773926 ,1137.0000839233398, 0, 0, 180
-898.554265499115 ,-377.67380475997925 ,1144.0000534057617, 0, 0, 180
-894.250214099884 ,-379.6546161174774 ,1150.0000953674316, 0, 0, 180
-889.0822529792786 ,-381.3052773475647 ,1155.00009059906, 0, 0, 180
-880.0262212753296 ,-381.3052773475647 ,1155.00009059906, 0, 0, 180
-872.4784255027771 ,-381.9655478000641 ,1157.0000648498535, 0, 0, 180
-870.8691596984863 ,-385.26690006256104 ,1167.0000553131104, 0, 0, 180
-882.3944330215454 ,-394.5106565952301 ,1195.0000524520874, 0, 0, 180
-589.9507403373718 ,-375.3628730773926 ,1137.0000839233398, 0, 0, 180
-584.613025188446 ,-377.67380475997925 ,1144.0000534057617, 0, 0, 180
-578.1592130661011 ,-379.3244659900665 ,1149.0000486373901, 0, 0, 180
-564.1968846321106 ,-376.0231137275696 ,1139.0000581741333, 0, 0, 180
-553.3162951469421 ,-374.7026026248932 ,1135.0001096725464, 0, 0, 180
-545.3764200210571 ,-375.3628730773926 ,1137.0000839233398, 0, 0, 180
-539.7643446922302 ,-377.67380475997925 ,1144.0000534057617, 0, 0, 180
-537.7542972564697 ,-382.6258182525635 ,1159.000039100647, 0, 0, 180
-533.22833776474 ,-385.92714071273804 ,1169.0000295639038, 0, 0, 180
-522.2694277763367 ,-384.60662961006165 ,1165.000081062317, 0, 0, 180
-508.2899332046509 ,-380.9751272201538 ,1154.0000438690186, 0, 0, 180
-498.8091289997101 ,-380.6449770927429 ,1152.999997138977, 0, 0, 180
-490.61840772628784 ,-381.3052773475647 ,1155.00009059906, 0, 0, 180
-485.7318103313446 ,-384.60662961006165 ,1165.000081062317, 0, 0, 180
-480.27923703193665 ,-387.5778317451477 ,1174.0000247955322, 0, 0, 180
-469.469279050827 ,-386.2572908401489 ,1170.0000762939453, 0, 0, 180
-431.295245885849 ,-384.93674993515015 ,1166.0000085830688, 0, 0, 180
-423.23917150497437 ,-385.92714071273804 ,1169.0000295639038, 0, 0, 180
-413.01077604293823 ,-384.93674993515015 ,1166.0000085830688, 0, 0, 180
-403.86852622032166 ,-384.93674993515015 ,1166.0000085830688, 0, 0, 180
-395.74185013771057 ,-385.92714071273804 ,1169.0000295639038, 0, 0, 180
-385.91471314430237 ,-385.26690006256104 ,1167.0000553131104, 0, 0, 180
-375.1503825187683 ,-383.61620903015137 ,1162.000060081482, 0, 0, 180
-365.09451270103455 ,-382.6258182525635 ,1159.000039100647, 0, 0, 180
-354.7784984111786 ,-381.3052773475647 ,1155.00009059906, 0, 0, 180
-345.1237976551056 ,-380.6449770927429 ,1152.999997138977, 0, 0, 180
-335.20907163619995 ,-379.6546161174774 ,1150.0000953674316, 0, 0, 180
-326.1922597885132 ,-379.6546161174774 ,1150.0000953674316, 0, 0, 180
-316.8996572494507 ,-379.3244659900665 ,1149.0000486373901, 0, 0, 180
-307.8906834125519 ,-379.3244659900665 ,1149.0000486373901, 0, 0, 180
-300.18237233161926 ,-380.9751272201538 ,1154.0000438690186, 0, 0, 180
-293.15248131752014 ,-383.61620903015137 ,1162.000060081482, 0, 0, 180
-284.77492928504944 ,-384.60662961006165 ,1165.000081062317, 0, 0, 180
-273.98431301116943 ,-382.295697927475 ,1158.000111579895, 0, 0, 180
-264.2185091972351 ,-381.3052773475647 ,1155.00009059906, 0, 0, 180
-255.1625370979309 ,-381.3052773475647 ,1155.00009059906, 0, 0, 180
-246.53267860412598 ,-381.9655478000641 ,1157.0000648498535, 0, 0, 180
-237.46100068092346 ,-381.9655478000641 ,1157.0000648498535, 0, 0, 180
-229.37631607055664 ,-383.61620903015137 ,1162.000060081482, 0, 0, 180
-221.02364897727966 ,-384.93674993515015 ,1166.0000085830688, 0, 0, 180
-210.60939133167267 ,-382.6258182525635 ,1159.000039100647, 0, 0, 180
-199.08779859542847 ,-378.00395488739014 ,1145.0001001358032, 0, 0, 180
-189.77811932563782 ,-377.34365463256836 ,1143.0000066757202, 0, 0, 180
-184.45467948913574 ,-384.93674993515015 ,1166.0000085830688, 0, 0, 180
-177.41739749908447 ,-389.5586431026459 ,1180.0000667572021, 0, 0, 180
-156.8932980298996 ,-384.60662961006165 ,1165.000081062317, 0, 0, 180
-146.11007273197174 ,-380.3148865699768 ,1152.000069618225, 0, 0, 180
-148.6869752407074,-373.2161819934845,1158.000111579895, 0,  0, 180
-160.9000265598297,-380.62894344329834,1181.0001134872437, 0,  0, 180
-171.88885807991028,-384.49645042419434,1193.000078201294, 0,  0, 180
-180.9389442205429,-383.8518559932709,1191.0001039505005, 0,  0, 180
-188.20029497146606,-379.66203689575195,1178.0000925064087, 0,  0, 180
-194.9225813150406,-374.82765316963196,1163.0001068115234, 0,  0, 180
-203.33950221538544,-373.53843450546265,1159.000039100647, 0,  0, 180
-212.24360167980194,-373.2161819934845,1158.000111579895, 0,  0, 180
-222.27874398231506,-374.82765316963196,1163.0001068115234, 0,  0, 180
-231.9943606853485,-375.79450011253357,1166.0000085830688, 0,  0, 180
-239.6889477968216,-373.53843450546265,1159.000039100647, 0,  0, 180
-247.70307540893555,-371.9269633293152,1154.0000438690186, 0,  0, 180
-256.75123929977417,-371.9269633293152,1154.0000438690186, 0,  0, 180
-265.7993733882904,-371.9269633293152,1154.0000438690186, 0,  0, 180
-275.8002281188965,-373.2161819934845,1158.000111579895, 0,  0, 180
-285.8637869358063,-374.50534105300903,1162.000060081482, 0,  0, 180
-295.9900498390198,-375.79450011253357,1166.0000085830688, 0,  0, 180
-303.823858499527,-374.1830289363861,1161.0000133514404, 0,  0, 180
-311.30969524383545,-372.2492754459381,1155.00009059906, 0,  0, 180
-320.08829712867737,-371.9269633293152,1154.0000438690186, 0,  0, 180
-327.995628118515,-370.63780426979065,1150.0000953674316, 0,  0, 180
-337.891548871994,-371.60468101501465,1152.999997138977, 0,  0, 180
-362.14694380760193,-378.0505657196045,1173.0000972747803, 0,  0, 180
-372.6103603839874,-379.339724779129,1177.0000457763672, 0,  0, 180
-379.5679211616516,-377.0836889743805,1170.0000762939453, 0,  0, 180
-390.07052779197693,-378.37284803390503,1174.0000247955322, 0,  0, 180
-400.6359279155731,-379.66203689575195,1178.0000925064087, 0,  0, 180
-409.1763496398926,-379.0174126625061,1175.9999990463257, 0,  0, 180
-418.3970093727112,-379.0174126625061,1175.9999990463257, 0,  0, 180
-427.6176691055298,-379.0174126625061,1175.9999990463257, 0,  0, 180
-425.57668685913086,-361.61360144615173,1122.0000982284546, 0,  0, 180
-432.05106258392334,-359.67981815338135,1116.0000562667847, 0,  0, 180
-451.86081528663635,-368.70405077934265,1144.0000534057617, 0,  0, 180
-477.1922826766968,-374.50534105300903,1162.000060081482, 0,  0, 180
-486.7216944694519,-374.82765316963196,1163.0001068115234, 0,  0, 180
-498.39842319488525,-376.76137685775757,1169.0000295639038, 0,  0, 180
-507.5641870498657,-376.76137685775757,1169.0000295639038, 0,  0, 180
-514.9618983268738,-375.47221779823303,1165.000081062317, 0,  0, 180
-525.8957147598267,-376.76137685775757,1169.0000295639038, 0,  0, 180
-533.2306623458862,-375.47221779823303,1165.000081062317, 0,  0, 180
-532.1229696273804,-368.3817386627197,1143.0000066757202, 0,  0, 180
-532.0904850959778,-362.2581660747528,1124.000072479248, 0,  0, 180
-541.865885257721,-362.90276050567627,1126.0000467300415, 0,  0, 180
-559.4977736473083,-368.70405077934265,1144.0000534057617, 0,  0, 180
-575.424313545227,-373.2161819934845,1158.000111579895, 0,  0, 180
-587.0275497436523,-374.82765316963196,1163.0001068115234, 0,  0, 180
-591.0202860832214,-371.60468101501465,1152.999997138977, 0,  0, 180
-593.8154458999634,-367.73714423179626,1141.0000324249268, 0,  0, 180
-889.4481658935547,-387.39708065986633,1202.0000219345093, 0,  0, 180
-866.7166829109192,-373.53843450546265,1159.000039100647, 0,  0, 180
-861.4466190338135,-367.4148917198181,1140.0001049041748, 0,  0, 180
-866.5675520896912,-365.80342054367065,1135.0001096725464, 0,  0, 180
-877.009391784668,-366.44798517227173,1137.0000839233398, 0,  0, 180
-888.2617950439453,-367.4148917198181,1140.0001049041748, 0,  0, 180
-900.3482460975647,-368.70405077934265,1144.0000534057617, 0,  0, 180
-906.9333672523499,-367.73714423179626,1141.0000324249268, 0,  0, 180
-911.0634922981262,-365.80342054367065,1135.0001096725464, 0,  0, 180
-911.8571877479553,-362.58044838905334,1125.0, 0,  0, 180
-916.5859818458557,-360.9689772129059,1120.0000047683716, 0,  0, 180
-926.1938333511353,-361.2912893295288,1121.000051498413, 0,  0, 180
-939.1535520553589,-362.90276050567627,1126.0000467300415, 0,  0, 180
-954.7173976898193,-365.48110842704773,1134.0000629425049, 0,  0, 180
-966.1580324172974,-366.44798517227173,1137.0000839233398, 0,  0, 180
-977.6456356048584,-367.4148917198181,1140.0001049041748, 0,  0, 180
-985.7185482978821,-367.0925796031952,1139.0000581741333, 0,  0, 180
-988.5362982749939,-364.83654379844666,1132.0000886917114, 0,  0, 180
-993.0064082145691,-363.2250726222992,1127.000093460083, 0,  0, 180
-1001.8428564071655,-363.2250726222992,1127.000093460083, 0,  0, 180
-1009.7825527191162,-362.90276050567627,1126.0000467300415, 0,  0, 180
-1018.6111927032471,-362.90276050567627,1126.0000467300415, 0,  0, 180
-1031.0895442962646,-364.1919195652008,1129.9999952316284, 0,  0, 180
-1050.0730276107788,-367.73714423179626,1141.0000324249268, 0,  0, 180
-1061.803698539734,-368.70405077934265,1144.0000534057617, 0,  0, 180
-1067.0294761657715,-367.4148917198181,1140.0001049041748, 0,  0, 180
-1075.0240087509155,-367.0925796031952,1139.0000581741333, 0,  0, 180
-1085.85786819458,-367.73714423179626,1141.0000324249268, 0,  0, 180
-1093.8446521759033,-367.4148917198181,1140.0001049041748, 0,  0, 180
-1108.587145805359,-369.3486154079437,1146.0000276565552, 0,  0, 180
-1123.42369556427,-371.2823987007141,1152.000069618225, 0,  0, 180
-1124.5919466018677,-368.70405077934265,1144.0000534057617, 0,  0, 180
-1132.570743560791,-368.3817386627197,1143.0000066757202, 0,  0, 180
-1143.5301303863525,-369.0263628959656,1145.0001001358032, 0,  0, 180
-1156.5338373184204,-370.3155219554901,1149.0000486373901, 0,  0, 180
-1167.7923202514648 ,-362.5643849372864 ,1152.999997138977, 0, 0, 180
-1157.7471494674683 ,-362.2499406337738 ,1152.000069618225, 0, 0, 180
-1142.731785774231 ,-360.3632152080536 ,1146.0000276565552, 0, 0, 180
-1123.8532066345215 ,-357.2186827659607 ,1136.0000371932983, 0, 0, 180
-1031.0699939727783 ,-333.0058157444 ,1059.000015258789, 0, 0, 180
-1028.5614728927612 ,-334.89254117012024 ,1065.000057220459, 0, 0, 180
-1084.3933820724487 ,-355.9609055519104 ,1132.0000886917114, 0, 0, 180
-1078.368067741394 ,-356.9042682647705 ,1135.0001096725464, 0, 0, 180
-1063.8152360916138 ,-355.0175428390503 ,1129.0000677108765, 0, 0, 180
-1060.5696439743042 ,-356.9042682647705 ,1135.0001096725464, 0, 0, 180
-1060.9363317489624 ,-360.0488007068634 ,1145.0001001358032, 0, 0, 180
-1050.1211881637573 ,-359.4198524951935 ,1143.0000066757202, 0, 0, 180
-1033.8722467422485 ,-356.9042682647705 ,1135.0001096725464, 0, 0, 180
-1020.4576253890991 ,-355.3319573402405 ,1129.9999952316284, 0, 0, 180
-1010.7024908065796 ,-355.0175428390503 ,1129.0000677108765, 0, 0, 180
-1007.1746110916138 ,-356.9042682647705 ,1135.0001096725464, 0, 0, 180
-1001.7935037612915 ,-358.1620454788208 ,1139.0000581741333, 0, 0, 180
-989.3762469291687 ,-356.9042682647705 ,1135.0001096725464, 0, 0, 180
-980.4770946502686 ,-356.9042682647705 ,1135.0001096725464, 0, 0, 180
-973.2899069786072 ,-357.53315687179565 ,1137.0000839233398, 0, 0, 180
-966.071367263794 ,-358.1620454788208 ,1139.0000581741333, 0, 0, 180
-954.6197652816772 ,-357.2186827659607 ,1136.0000371932983, 0, 0, 180
-948.2102394104004 ,-358.1620454788208 ,1139.0000581741333, 0, 0, 180
-939.2797350883484 ,-358.1620454788208 ,1139.0000581741333, 0, 0, 180
-923.8147139549255 ,-355.64643144607544 ,1131.00004196167, 0, 0, 180
-913.3289456367493 ,-355.0175428390503 ,1129.0000677108765, 0, 0, 180
-906.0790538787842 ,-355.64643144607544 ,1131.00004196167, 0, 0, 180
-901.9710421562195 ,-357.53315687179565 ,1137.0000839233398, 0, 0, 180
-898.554265499115 ,-359.73432660102844 ,1144.0000534057617, 0, 0, 180
-887.2516751289368 ,-358.79096388816833 ,1141.0000324249268, 0, 0, 180
-870.6077933311462 ,-355.64643144607544 ,1131.00004196167, 0, 0, 180
-853.3587455749512 ,-352.1874248981476 ,1120.0000047683716, 0, 0, 180
-847.5935459136963 ,-353.44526171684265 ,1124.000072479248, 0, 0, 180
-854.4517755508423 ,-360.0488007068634 ,1145.0001001358032, 0, 0, 180
-897.9009389877319 ,-382.37494230270386 ,1216.0000801086426, 0, 0, 180
-596.1771011352539 ,-361.3065779209137 ,1149.0000486373901, 0, 0, 180
-593.8115119934082 ,-365.3944730758667 ,1162.000060081482, 0, 0, 180
-585.2038264274597 ,-365.70894718170166 ,1163.0001068115234, 0, 0, 180
-573.1130838394165 ,-363.82222175598145 ,1157.0000648498535, 0, 0, 180
-560.1413249969482 ,-361.3065779209137 ,1149.0000486373901, 0, 0, 180
-542.0187711715698 ,-355.3319573402405 ,1129.9999952316284, 0, 0, 180
-531.2715768814087 ,-354.0741801261902 ,1126.0000467300415, 0, 0, 180
-526.6187787055969 ,-356.9042682647705 ,1135.0001096725464, 0, 0, 180
-519.5441246032715 ,-358.1620454788208 ,1139.0000581741333, 0, 0, 180
-512.4067664146423 ,-359.4198524951935 ,1143.0000066757202, 0, 0, 180
-510.05178689956665 ,-364.1366958618164 ,1158.000111579895, 0, 0, 180
-505.7310461997986 ,-367.5956428050995 ,1169.0000295639038, 0, 0, 180
-495.7157373428345 ,-366.96675419807434 ,1167.0000553131104, 0, 0, 180
-482.8132688999176 ,-364.1366958618164 ,1158.000111579895, 0, 0, 180
-468.8245356082916 ,-360.3632152080536 ,1146.0000276565552, 0, 0, 180
-457.4316143989563 ,-358.47651958465576 ,1140.0001049041748, 0, 0, 180
-452.42735743522644 ,-361.62105202674866 ,1150.0000953674316, 0, 0, 180
-446.1095631122589 ,-363.82222175598145 ,1157.0000648498535, 0, 0, 180
-437.7933442592621 ,-364.4511103630066 ,1159.000039100647, 0, 0, 180
-431.66518211364746 ,-366.96675419807434 ,1167.0000553131104, 0, 0, 180
-427.9458522796631 ,-371.6835379600525 ,1182.0000410079956, 0, 0, 180
-423.2829213142395 ,-375.7714331150055 ,1195.0000524520874, 0, 0, 180
-415.2987599372864 ,-377.0292401313782 ,1199.0000009536743, 0, 0, 180
-403.5280644893646 ,-374.8280704021454 ,1192.0000314712524, 0, 0, 180
-393.1898772716522 ,-373.8847076892853 ,1189.0000104904175, 0, 0, 180
-383.8672935962677 ,-373.8847076892853 ,1189.0000104904175, 0, 0, 180
-374.54473972320557 ,-373.8847076892853 ,1189.0000104904175, 0, 0, 180
-361.8433475494385 ,-370.4257309436798 ,1178.0000925064087, 0, 0, 180
-347.8177785873413 ,-365.3944730758667 ,1162.000060081482, 0, 0, 180
-337.83242106437683 ,-364.4511103630066 ,1159.000039100647, 0, 0, 180
-331.0142159461975 ,-366.96675419807434 ,1167.0000553131104, 0, 0, 180
-322.69155979156494 ,-367.91011691093445 ,1170.0000762939453, 0, 0, 180
-312.7140402793884 ,-366.96675419807434 ,1167.0000553131104, 0, 0, 180
-305.9050738811493 ,-369.7968125343323 ,1175.9999990463257, 0, 0, 180
-295.4230308532715 ,-368.22453141212463 ,1171.0000038146973, 0, 0, 180
-283.0638587474823 ,-364.1366958618164 ,1158.000111579895, 0, 0, 180
-273.0379104614258 ,-362.87885904312134 ,1154.0000438690186, 0, 0, 180
-264.2185091972351 ,-363.1933331489563 ,1155.00009059906, 0, 0, 180
-254.05794382095337 ,-361.62105202674866 ,1150.0000953674316, 0, 0, 180
-243.76264214515686 ,-359.73432660102844 ,1144.0000534057617, 0, 0, 180
-234.5876544713974 ,-359.4198524951935 ,1143.0000066757202, 0, 0, 180
-226.21795535087585 ,-360.3632152080536 ,1146.0000276565552, 0, 0, 180
-209.51908826828003 ,-362.5643849372864 ,1152.999997138977, 0, 0, 180
-201.3481855392456 ,-364.1366958618164 ,1158.000111579895, 0, 0, 180
-193.43090057373047 ,-366.3378357887268 ,1165.000081062317, 0, 0, 180
-185.56205928325653 ,-368.85347962379456 ,1173.0000972747803, 0, 0, 180
-176.9663244485855 ,-370.11128664016724 ,1177.0000457763672, 0, 0, 180
-168.8779592514038 ,-372.6269006729126 ,1185.0000619888306, 0, 0, 180
-158.10532867908478 ,-369.16789412498474 ,1174.0000247955322, 0, 0, 180
-146.74422144889832 ,-363.82222175598145 ,1157.0000648498535, 0, 0, 180
-148.5585719347,-354.75054383277893,1157.0000648498535, 0,  0, 180
-160.35506129264832,-360.88278889656067,1177.0000457763672, 0,  0, 180
-170.15989124774933,-362.1092438697815,1181.0001134872437, 0,  0, 180
-178.96395921707153,-361.1893951892853,1178.0000925064087, 0,  0, 180
-188.04052472114563,-360.88278889656067,1177.0000457763672, 0,  0, 180
-203.16407084465027,-355.05715012550354,1158.000111579895, 0,  0, 180
-212.42687106132507,-355.36375641822815,1159.000039100647, 0,  0, 180
-220.74973583221436,-354.1373312473297,1155.00009059906, 0,  0, 180
-227.41813957691193,-350.45793652534485,1143.0000066757202, 0,  0, 180
-235.96642911434174,-349.84472393989563,1141.0000324249268, 0,  0, 180
-246.84450030326843,-352.6042699813843,1150.0000953674316, 0,  0, 180
-257.8636705875397,-355.36375641822815,1159.000039100647, 0,  0, 180
-266.4903700351715,-354.75054383277893,1157.0000648498535, 0,  0, 180
-275.562047958374,-354.75054383277893,1157.0000648498535, 0,  0, 180
-285.8637869358063,-356.28360509872437,1162.000060081482, 0,  0, 180
-296.24390602111816,-357.8166663646698,1167.0000553131104, 0,  0, 180
-305.3939938545227,-357.8166663646698,1167.0000553131104, 0,  0, 180
-315.3526782989502,-358.7364852428436,1170.0000762939453, 0,  0, 180
-325.35839080810547,-359.65633392333984,1173.0000972747803, 0,  0, 180
-333.4146738052368,-358.429878950119,1169.0000295639038, 0,  0, 180
-341.40822291374207,-357.2034239768982,1165.000081062317, 0,  0, 180
-351.1444330215454,-357.8166663646698,1167.0000553131104, 0,  0, 180
-360.9119653701782,-358.429878950119,1169.0000295639038, 0,  0, 180
-372.29377031326294,-360.5761528015137,1175.9999990463257, 0,  0, 180
-382.16325640678406,-361.1893951892853,1178.0000925064087, 0,  0, 180
-392.06409454345703,-361.8026077747345,1180.0000667572021, 0,  0, 180
-403.35673093795776,-363.64230513572693,1186.000108718872, 0,  0, 180
-415.091335773468,-365.7885789871216,1193.000078201294, 0,  0, 180
-421.95484042167664,-363.64230513572693,1186.000108718872, 0,  0, 180
-425.43596029281616,-358.7364852428436,1170.0000762939453, 0,  0, 180
-430.52345514297485,-355.36375641822815,1159.000039100647, 0,  0, 180
-440.3694272041321,-355.97696900367737,1161.0000133514404, 0,  0, 180
-449.859619140625,-356.28360509872437,1162.000060081482, 0,  0, 180
-455.81063628196716,-353.8306951522827,1154.0000438690186, 0,  0, 180
-461.2334072589874,-351.07120871543884,1145.0001001358032, 0,  0, 180
-474.31764006614685,-354.1373312473297,1155.00009059906, 0,  0, 180
-486.3031506538391,-356.28360509872437,1162.000060081482, 0,  0, 180
-494.9876368045807,-355.97696900367737,1161.0000133514404, 0,  0, 180
-502.7881860733032,-355.05715012550354,1158.000111579895, 0,  0, 180
-507.88944959640503,-352.2976338863373,1149.0000486373901, 0,  0, 180
-510.15037298202515,-347.698450088501,1134.0000629425049, 0,  0, 180
-516.7531967163086,-346.16538882255554,1129.0000677108765, 0,  0, 180
-525.605320930481,-346.16538882255554,1129.0000677108765, 0,  0, 180
-533.510684967041,-345.5521762371063,1127.000093460083, 0,  0, 180
-546.6781854629517,-348.3116626739502,1136.0000371932983, 0,  0, 180
-561.9431138038635,-352.2976338863373,1149.0000486373901, 0,  0, 180
-573.9336013793945,-354.1373312473297,1155.00009059906, 0,  0, 180
-581.4752578735352,-353.2174825668335,1152.000069618225, 0,  0, 180
-588.9699459075928,-352.2976338863373,1149.0000486373901, 0,  0, 180
-596.4176058769226,-351.37778520584106,1146.0000276565552, 0,  0, 180
-865.2210235595703,-354.75054383277893,1157.0000648498535, 0,  0, 180
-853.1343936920166,-346.16538882255554,1129.0000677108765, 0,  0, 180
-860.459566116333,-345.5521762371063,1127.000093460083, 0,  0, 180
-877.009391784668,-348.6182987689972,1137.0000839233398, 0,  0, 180
-896.0535526275635,-352.6042699813843,1150.0000953674316, 0,  0, 180
-906.9333672523499,-349.84472393989563,1141.0000324249268, 0,  0, 180
-911.0634922981262,-348.005086183548,1135.0001096725464, 0,  0, 180
-916.720449924469,-346.77860140800476,1131.00004196167, 0,  0, 180
-932.9537153244019,-349.5381474494934,1140.0001049041748, 0,  0, 180
-949.3280053138733,-352.2976338863373,1149.0000486373901, 0,  0, 180
-957.5029015541077,-351.9909977912903,1148.0000019073486, 0,  0, 180
-958.9269161224365,-349.2315113544464,1139.0000581741333, 0,  0, 180
-959.3600630760193,-346.16538882255554,1129.0000677108765, 0,  0, 180
-966.4970636367798,-345.5521762371063,1127.000093460083, 0,  0, 180
-979.6606302261353,-347.08523750305176,1132.0000886917114, 0,  0, 180
-1002.5084018707275,-351.9909977912903,1148.0000019073486, 0,  0, 180
-1015.9151554107666,-353.5240590572357,1152.999997138977, 0,  0, 180
-1020.5106735229492,-351.9909977912903,1148.0000019073486, 0,  0, 180
-1026.821494102478,-351.07120871543884,1145.0001001358032, 0,  0, 180
-1042.1315431594849,-353.2174825668335,1152.000069618225, 0,  0, 180
-1048.4265089035034,-352.2976338863373,1149.0000486373901, 0,  0, 180
-1060.1963996887207,-353.2174825668335,1152.000069618225, 0,  0, 180
-1071.0850954055786,-353.8306951522827,1154.0000438690186, 0,  0, 180
-1078.261375427246,-353.2174825668335,1152.000069618225, 0,  0, 180
-1075.9679079055786,-349.5381474494934,1140.0001049041748, 0,  0, 180
-1079.1962146759033,-347.698450088501,1134.0000629425049, 0,  0, 180
-1021.881103515625,-326.5421986579895,1065.000057220459, 0,  0, 180
-1012.8191709518433,-321.023166179657,1047.0000505447388, 0,  0, 180
-1039.5570993423462,-326.8488347530365,1066.0001039505005, 0,  0, 180
-1097.0669984817505,-342.17941761016846,1116.0000562667847, 0,  0, 180
-1124.6438026428223,-348.005086183548,1135.0001096725464, 0,  0, 180
-1138.5365724563599,-349.5381474494934,1140.0001049041748, 0,  0, 180
-1150.4944562911987,-350.45793652534485,1143.0000066757202, 0,  0, 180
-1148.5486030578613 ,-338.8071060180664 ,1134.0000629425049, 0, 0, 180
-1137.6473903656006 ,-338.2095694541931 ,1132.0000886917114, 0, 0, 180
-1131.763219833374 ,-339.10587430000305 ,1135.0001096725464, 0, 0, 180
-1118.9067363739014 ,-337.9107713699341 ,1131.00004196167, 0, 0, 180
-1089.4875526428223 ,-334.32552218437195 ,1119.0000772476196, 0, 0, 180
-1081.6795825958252 ,-334.6242904663086 ,1120.0000047683716, 0, 0, 180
-1106.4261198043823 ,-345.0813293457031 ,1155.00009059906, 0, 0, 180
-1115.422010421753 ,-350.7579565048218 ,1174.0000247955322, 0, 0, 180
-1101.5057563781738 ,-349.26411509513855 ,1169.0000295639038, 0, 0, 180
-1090.4711484909058 ,-348.66657853126526 ,1167.0000553131104, 0, 0, 180
-1080.3945064544678 ,-348.3677804470062 ,1166.0000085830688, 0, 0, 180
-1062.9836320877075 ,-345.6788659095764 ,1157.0000648498535, 0, 0, 180
-1050.268292427063 ,-344.48373317718506 ,1152.999997138977, 0, 0, 180
-1043.0341958999634 ,-345.0813293457031 ,1155.00009059906, 0, 0, 180
-1031.2925577163696 ,-344.1849946975708 ,1152.000069618225, 0, 0, 180
-1023.1473445892334 ,-344.48373317718506 ,1152.999997138977, 0, 0, 180
-1014.9866342544556 ,-344.7825312614441 ,1154.0000438690186, 0, 0, 180
-1002.4516582489014 ,-343.5874581336975 ,1150.0000953674316, 0, 0, 180
-981.3408851623535 ,-339.4046425819397 ,1136.0000371932983, 0, 0, 180
-964.7297263145447 ,-336.7156982421875 ,1127.000093460083, 0, 0, 180
-957.5896263122559 ,-337.3132348060608 ,1129.0000677108765, 0, 0, 180
-953.7795186042786 ,-339.10587430000305 ,1135.0001096725464, 0, 0, 180
-951.5401721000671 ,-341.4960205554962 ,1143.0000066757202, 0, 0, 180
-946.7015266418457 ,-342.98989176750183 ,1148.0000019073486, 0, 0, 180
-936.0668659210205 ,-342.39235520362854 ,1146.0000276565552, 0, 0, 180
-931.9353103637695 ,-344.1849946975708 ,1152.000069618225, 0, 0, 180
-925.3062605857849 ,-345.0813293457031 ,1155.00009059906, 0, 0, 180
-913.8703346252441 ,-344.1849946975708 ,1152.000069618225, 0, 0, 180
-902.4814963340759 ,-343.2886600494385 ,1149.0000486373901, 0, 0, 180
-887.2516751289368 ,-340.8984839916229 ,1141.0000324249268, 0, 0, 180
-875.2264380455017 ,-339.70341086387634 ,1137.0000839233398, 0, 0, 180
-867.8354024887085 ,-340.30094742774963 ,1139.0000581741333, 0, 0, 180
-869.4620132446289 ,-344.48373317718506 ,1152.999997138977, 0, 0, 180
-887.2865438461304 ,-355.23954033851624 ,1189.0000104904175, 0, 0, 180
-598.3389019966125 ,-339.4046425819397 ,1136.0000371932983, 0, 0, 180
-594.1016674041748 ,-342.0936167240143 ,1145.0001001358032, 0, 0, 180
-588.7012481689453 ,-344.1849946975708 ,1152.000069618225, 0, 0, 180
-582.1847319602966 ,-345.6788659095764 ,1157.0000648498535, 0, 0, 180
-575.5897760391235 ,-347.17270731925964 ,1162.000060081482, 0, 0, 180
-562.0913505554199 ,-344.48373317718506 ,1152.999997138977, 0, 0, 180
-544.417142868042 ,-339.10587430000305 ,1135.0001096725464, 0, 0, 180
-528.9124250411987 ,-334.92305874824524 ,1121.000051498413, 0, 0, 180
-521.9789147377014 ,-336.1181318759918 ,1125.0, 0, 0, 180
-515.8950090408325 ,-337.9107713699341 ,1131.00004196167, 0, 0, 180
-511.0619068145752 ,-340.59974551200867 ,1140.0001049041748, 0, 0, 180
-506.5281391143799 ,-343.5874581336975 ,1150.0000953674316, 0, 0, 180
-498.3765482902527 ,-344.1849946975708 ,1152.000069618225, 0, 0, 180
-487.64491081237793 ,-342.98989176750183 ,1148.0000019073486, 0, 0, 180
-481.1454713344574 ,-344.7825312614441 ,1154.0000438690186, 0, 0, 180
-470.6730544567108 ,-350.4592180252075 ,1173.0000972747803, 0, 0, 180
-428.70602011680603 ,-346.2764024734497 ,1159.000039100647, 0, 0, 180
-420.34274339675903 ,-346.8739092350006 ,1161.0000133514404, 0, 0, 180
-413.364976644516 ,-348.66657853126526 ,1167.0000553131104, 0, 0, 180
-408.02499651908875 ,-351.95305943489075 ,1178.0000925064087, 0, 0, 180
-398.45010638237 ,-351.6542911529541 ,1177.0000457763672, 0, 0, 180
-390.2136981487274 ,-352.55059599876404 ,1180.0000667572021, 0, 0, 180
-381.28453493118286 ,-352.84939408302307 ,1181.0001134872437, 0, 0, 180
-371.079683303833 ,-351.95305943489075 ,1178.0000925064087, 0, 0, 180
-359.38599705696106 ,-349.5628833770752 ,1170.0000762939453, 0, 0, 180
-349.3143916130066 ,-348.66657853126526 ,1167.0000553131104, 0, 0, 180
-338.7068808078766 ,-347.17270731925964 ,1162.000060081482, 0, 0, 180
-328.1777799129486 ,-345.6788659095764 ,1157.0000648498535, 0, 0, 180
-319.1061019897461 ,-345.6788659095764 ,1157.0000648498535, 0, 0, 180
-310.30237674713135 ,-345.97763419151306 ,1158.000111579895, 0, 0, 180
-303.04375290870667 ,-348.06904196739197 ,1165.000081062317, 0, 0, 180
-296.9367206096649 ,-351.6542911529541 ,1177.0000457763672, 0, 0, 180
-286.73046827316284 ,-350.4592180252075 ,1173.0000972747803, 0, 0, 180
-274.9307155609131 ,-347.17270731925964 ,1162.000060081482, 0, 0, 180
-266.5061056613922 ,-348.06904196739197 ,1165.000081062317, 0, 0, 180
-259.3599855899811 ,-350.7579565048218 ,1174.0000247955322, 0, 0, 180
-249.51577186584473 ,-349.86165165901184 ,1171.0000038146973, 0, 0, 180
-238.69243264198303 ,-347.4715054035187 ,1163.0001068115234, 0, 0, 180
-221.02364897727966 ,-348.3677804470062 ,1166.0000085830688, 0, 0, 180
-212.06313371658325 ,-348.66657853126526 ,1167.0000553131104, 0, 0, 180
-202.56531238555908 ,-348.06904196739197 ,1165.000081062317, 0, 0, 180
