-280.1986336708069 ,-26.670772582292557 ,281.000018119812, 0, 0, 180
-277.99540758132935 ,-26.670772582292557 ,281.000018119812, 0, 0, 180
-275.7921516895294 ,-26.670772582292557 ,281.000018119812, 0, 0, 180
-274.5625376701355 ,-26.76568366587162 ,282.00000524520874, 0, 0, 180
-273.31727743148804 ,-26.86060033738613 ,283.00002217292786, 0, 0, 180
-272.0562815666199 ,-26.955513283610344 ,284.0000092983246, 0, 0, 180
-270.77963948249817 ,-27.050428092479706 ,285.0000262260437, 0, 0, 180
-270.4295516014099 ,-27.240252122282982 ,287.00000047683716, 0, 0, 180
-268.1792676448822 ,-27.240252122282982 ,287.00000047683716, 0, 0, 180
-266.8555974960327 ,-27.335168793797493 ,288.0000174045563, 0, 0, 180
-263.67872953414917 ,-27.240252122282982 ,287.00000047683716, 0, 0, 180
-261.42844557762146 ,-27.240252122282982 ,287.00000047683716, 0, 0, 180
-260.98430156707764 ,-27.430081740021706 ,289.000004529953, 0, 0, 180
-247.05828726291656 ,-27.904650196433067 ,293.9999997615814, 0, 0, 180
-245.5856204032898 ,-27.99956500530243 ,295.00001668930054, 0, 0, 180
-244.921937584877 ,-28.189392760396004 ,297.0000207424164, 0, 0, 180
-243.41006577014923 ,-28.284305706620216 ,298.0000078678131, 0, 0, 180
-242.69148707389832 ,-28.47413346171379 ,300.00001192092896, 0, 0, 180
-240.3392791748047 ,-28.47413346171379 ,300.00001192092896, 0, 0, 180
-230.10209202766418 ,-28.663961216807365 ,302.0000159740448, 0, 0, 180
-228.4882813692093 ,-28.758874163031578 ,303.0000030994415, 0, 0, 180
-226.85880959033966 ,-28.85378897190094 ,304.00002002716064, 0, 0, 180
-224.47523474693298 ,-28.85378897190094 ,304.00002002716064, 0, 0, 180
-220.43080627918243 ,-28.948701918125153 ,305.0000071525574, 0, 0, 180
-219.46917474269867 ,-29.138529673218727 ,307.0000112056732, 0, 0, 180
-217.76914596557617 ,-29.23344448208809 ,308.00002813339233, 0, 0, 180
-215.35421907901764 ,-29.23344448208809 ,308.00002813339233, 0, 0, 180
-215.01335501670837 ,-29.518185183405876 ,311.0000193119049, 0, 0, 180
-214.62546288967133 ,-29.802925884723663 ,314.0000104904175, 0, 0, 180
-213.51484954357147 ,-29.992753639817238 ,316.0000145435333, 0, 0, 180
-210.36936342716217 ,-29.897840693593025 ,315.0000274181366, 0, 0, 180
-207.2395235300064 ,-29.802925884723663 ,314.0000104904175, 0, 0, 180
-204.12540435791016 ,-29.70801293849945 ,313.00002336502075, 0, 0, 180
-566.2921667098999 ,-93.67989748716354 ,987.000048160553, 0, 0, 180
-555.7238459587097 ,-93.20533275604248 ,982.0000529289246, 0, 0, 180
-544.675886631012 ,-92.63584762811661 ,976.0000705718994, 0, 0, 180
-529.3201804161072 ,-91.30705893039703 ,962.0000720024109, 0, 0, 180
-506.04814291000366 ,-88.55455368757248 ,933.0000281333923, 0, 0, 180
-489.6455109119415 ,-86.94102615118027 ,916.0000681877136, 0, 0, 180
-472.4559783935547 ,-85.13765782117844 ,897.0000147819519, 0, 0, 180
-455.5644094944 ,-83.3342969417572 ,878.000020980835, 0, 0, 180
-441.525936126709 ,-82.00550079345703 ,864.0000224113464, 0, 0, 180
-428.7133812904358 ,-80.86653798818588 ,852.0000576972961, 0, 0, 180
-412.12621331214905 ,-78.96826416254044 ,832.0000171661377, 0, 0, 180
-399.75273609161377 ,-77.82930135726929 ,820.0000524520874, 0, 0, 180
-391.4047181606293 ,-77.44964212179184 ,816.0000443458557, 0, 0, 180
-380.7603418827057 ,-76.59541815519333 ,807.0000410079956, 0, 0, 180
-367.47318506240845 ,-75.17171651124954 ,792.0000553131104, 0, 0, 180
-353.50894927978516 ,-73.55817407369614 ,775.0000357627869, 0, 0, 180
-342.5011336803436 ,-72.5141316652298 ,764.0000581741333, 0, 0, 180
-332.5467109680176 ,-71.65990769863129 ,755.0000548362732, 0, 0, 180
-324.89651441574097 ,-71.28024846315384 ,751.0000467300415, 0, 0, 180
-320.2824592590332 ,-71.56498730182648 ,754.0000081062317, 0, 0, 180
-316.0383701324463 ,-71.94463908672333 ,758.0000162124634, 0, 0, 180
-310.5042278766632 ,-72.03955948352814 ,759.0000629425049, 0, 0, 180
-303.7506341934204 ,-71.84972614049911 ,757.0000290870667, 0, 0, 180
-297.42181301116943 ,-71.7548131942749 ,756.0000419616699, 0, 0, 180
-291.4942502975464 ,-71.7548131942749 ,756.0000419616699, 0, 0, 180
-285.56668758392334 ,-71.7548131942749 ,756.0000419616699, 0, 0, 180
-199.5096653699875 ,-54.670337587594986 ,576.0000348091125, 0, 0, 180
-109.77078229188919 ,-36.73163428902626 ,387.00002431869507, 0, 0, 180
-106.7364364862442 ,-36.73163428902626 ,387.00002431869507, 0, 0, 180
-103.70209068059921 ,-36.73163428902626 ,387.00002431869507, 0, 0, 180
-100.66775232553482 ,-36.73163428902626 ,387.00002431869507, 0, 0, 180
-97.88568317890167 ,-36.826543509960175 ,388.0000114440918, 0, 0, 180
-24.852899834513664 ,-94.72394734621048 ,998.0000257492065, 0, 0, 180
-16.823148354887962 ,-93.58498454093933 ,986.0000610351562, 0, 0, 180
-10.519728995859623,-84.8962590098381,975.0000238418579, 0,  0, 180
-18.220292404294014,-85.15748381614685,978.0000448226929, 0,  0, 180
-26.31201781332493,-86.55065298080444,994.0000176429749, 0,  0, 180
-104.30895537137985,-33.69728848338127,387.00002431869507, 0,  0, 180
-107.62067884206772,-33.78435969352722,388.0000114440918, 0,  0, 180
-110.66286265850067,-33.78435969352722,388.0000114440918, 0,  0, 180
-114.29116129875183,-33.95850583910942,390.00001549720764, 0,  0, 180
-291.9054627418518,-65.65310806035995,754.0000081062317, 0,  0, 180
-298.21234941482544,-65.7401829957962,755.0000548362732, 0,  0, 180
-304.1320741176605,-65.7401829957962,755.0000548362732, 0,  0, 180
-309.6410930156708,-65.65310806035995,754.0000081062317, 0,  0, 180
-314.29749727249146,-65.3918907046318,751.0000467300415, 0,  0, 180
-318.05410981178284,-64.95653092861176,746.0000514984131, 0,  0, 180
-323.90326261520386,-64.95653092861176,746.0000514984131, 0,  0, 180
-331.52052760124207,-65.30482321977615,750.0000596046448, 0,  0, 180
-340.999960899353,-66.00140035152435,758.0000162124634, 0,  0, 180
-354.724258184433,-67.4816444516182,775.0000357627869, 0,  0, 180
-371.5084493160248,-69.48433071374893,798.0000376701355, 0,  0, 180
-381.55245780944824,-70.18091529607773,806.0000538825989, 0,  0, 180
-388.35325837135315,-70.26798278093338,807.0000410079956, 0,  0, 180
-395.65882086753845,-70.44213265180588,809.0000152587891, 0,  0, 180
-404.4865071773529,-70.87749242782593,814.0000104904175, 0,  0, 180
-492.8804934024811,-81.23919367790222,933.0000281333923, 0,  0, 180
-502.34031677246094,-81.58748596906662,937.000036239624, 0,  0, 180
-514.582633972168,-82.37114548683167,946.0000395774841, 0,  0, 180
-529.7251343727112,-83.59016478061676,960.0000381469727, 0,  0, 180
-543.9678430557251,-84.63504910469055,972.0000624656677, 0,  0, 180
-557.2637915611267,-85.50577610731125,982.0000529289246, 0,  0, 180
-567.8399205207825,-85.9411433339119,987.000048160553, 0,  0, 180
-202.16208696365356,-27.253879234194756,313.00002336502075, 0,  0, 180
-204.6162337064743,-27.253879234194756,313.00002336502075, 0,  0, 180
-206.4087837934494,-27.166804298758507,312.00000643730164, 0,  0, 180
-208.18568766117096,-27.079731225967407,311.0000193119049, 0,  0, 180
-209.9468857049942,-26.992658153176308,310.0000023841858, 0,  0, 180
-211.00734174251556,-26.818513870239258,308.00002813339233, 0,  0, 180
-213.4222686290741,-26.818513870239258,308.00002813339233, 0,  0, 180
-215.83721041679382,-26.818513870239258,308.00002813339233, 0,  0, 180
-217.54351258277893,-26.73143893480301,307.0000112056732, 0,  0, 180
-219.2341536283493,-26.64436772465706,306.0000240802765, 0,  0, 180
-221.6334044933319,-26.64436772465706,306.0000240802765, 0,  0, 180
-223.300501704216,-26.55729278922081,305.0000071525574, 0,  0, 180
-224.95195269584656,-26.47021971642971,304.00002002716064, 0,  0, 180
-226.5876978635788,-26.38314664363861,303.0000030994415, 0,  0, 180
-228.2077819108963,-26.29607357084751,302.0000159740448, 0,  0, 180
-240.80972373485565,-26.121927425265312,300.00001192092896, 0,  0, 180
-242.35139787197113,-26.034856215119362,299.0000247955322, 0,  0, 180
-243.058979511261,-25.860708206892014,297.0000207424164, 0,  0, 180
-243.73522400856018,-25.686562061309814,295.00001668930054, 0,  0, 180
-245.21414935588837,-25.599487125873566,293.9999997615814, 0,  0, 180
-247.51931428909302,-25.599487125873566,293.9999997615814, 0,  0, 180
-248.9747405052185,-25.512415915727615,293.0000126361847, 0,  0, 180
-261.87852025032043,-24.98997561633587,287.00000047683716, 0,  0, 180
-264.12877440452576,-24.98997561633587,287.00000047683716, 0,  0, 180
-265.4509246349335,-24.90290440618992,286.00001335144043, 0,  0, 180
-267.69334077835083,-24.90290440618992,286.00001335144043, 0,  0, 180
-268.99197697639465,-24.815833196043968,285.0000262260437, 0,  0, 180
-269.3232297897339,-24.64168518781662,283.00002217292786, 0,  0, 180
-271.54213190078735,-24.64168518781662,283.00002217292786, 0,  0, 180
-272.7936804294586,-24.55461211502552,282.00000524520874, 0,  0, 180
-275.0047445297241,-24.55461211502552,282.00000524520874, 0,  0, 180
-276.2328088283539,-24.46753904223442,281.000018119812, 0,  0, 180
-278.4360349178314,-24.46753904223442,281.000018119812, 0,  0, 180
-279.6405553817749,-24.380464106798172,280.0000011920929, 0,  0, 180
-281.8359136581421,-24.380464106798172,280.0000011920929, 0,  0, 180
-281.5666198730469 ,-22.026607766747475 ,278.00002694129944, 0, 0, 180
-281.39686584472656 ,-22.18507044017315 ,280.0000011920929, 0, 0, 180
-279.201477766037 ,-22.18507044017315 ,280.0000011920929, 0, 0, 180
-277.006059885025 ,-22.18507044017315 ,280.0000011920929, 0, 0, 180
-275.7921516895294 ,-22.264303639531136 ,281.000018119812, 0, 0, 180
-274.5625376701355 ,-22.343534976243973 ,282.00000524520874, 0, 0, 180
-273.31727743148804 ,-22.42277003824711 ,283.00002217292786, 0, 0, 180
-272.0562815666199 ,-22.502001374959946 ,284.0000092983246, 0, 0, 180
-269.82954144477844 ,-22.502001374959946 ,284.0000092983246, 0, 0, 180
-268.5450613498688 ,-22.581234574317932 ,285.0000262260437, 0, 0, 180
-266.310453414917 ,-22.581234574317932 ,285.0000262260437, 0, 0, 180
-265.00242948532104 ,-22.66046591103077 ,286.00001335144043, 0, 0, 180
-263.67872953414917 ,-22.739697247743607 ,287.00000047683716, 0, 0, 180
-261.42844557762146 ,-22.739697247743607 ,287.00000047683716, 0, 0, 180
-260.0812613964081 ,-22.818930447101593 ,288.0000174045563, 0, 0, 180
-257.8231394290924 ,-22.818930447101593 ,288.0000174045563, 0, 0, 180
-256.45238161087036 ,-22.89816178381443 ,289.000004529953, 0, 0, 180
-251.38220191001892 ,-23.056628182530403 ,291.00000858306885, 0, 0, 180
-249.10056591033936 ,-23.056628182530403 ,291.00000858306885, 0, 0, 180
-248.5152781009674 ,-23.215092718601227 ,293.0000126361847, 0, 0, 180
-247.05828726291656 ,-23.294324055314064 ,293.9999997615814, 0, 0, 180
-245.5856204032898 ,-23.37355725467205 ,295.00001668930054, 0, 0, 180
-244.0972626209259 ,-23.452788591384888 ,296.00000381469727, 0, 0, 180
-242.59325861930847 ,-23.532023653388023 ,297.0000207424164, 0, 0, 180
-241.88251793384552 ,-23.690488189458847 ,299.0000247955322, 0, 0, 180
-239.53816294670105 ,-23.690488189458847 ,299.0000247955322, 0, 0, 180
-237.98707127571106 ,-23.769719526171684 ,300.00001192092896, 0, 0, 180
-228.57823967933655 ,-23.769719526171684 ,300.00001192092896, 0, 0, 180
-226.98013484477997 ,-23.84895272552967 ,301.00002884864807, 0, 0, 180
-226.11255943775177 ,-24.007415398955345 ,303.0000030994415, 0, 0, 180
-222.82221913337708 ,-24.165881797671318 ,305.0000071525574, 0, 0, 180
-220.43080627918243 ,-24.165881797671318 ,305.0000071525574, 0, 0, 180
-218.75429153442383 ,-24.245114997029305 ,306.0000240802765, 0, 0, 180
-217.0621007680893 ,-24.32434633374214 ,307.0000112056732, 0, 0, 180
-215.35421907901764 ,-24.403579533100128 ,308.00002813339233, 0, 0, 180
-213.63063156604767 ,-24.482810869812965 ,309.00001525878906, 0, 0, 180
-211.20786666870117 ,-24.482810869812965 ,309.00001525878906, 0, 0, 180
-208.10942351818085 ,-24.403579533100128 ,308.00002813339233, 0, 0, 180
-207.03014731407166 ,-24.562042206525803 ,310.0000023841858, 0, 0, 180
-205.2595317363739 ,-24.64127540588379 ,311.0000193119049, 0, 0, 180
-543.559730052948 ,-77.17235386371613 ,974.0000367164612, 0, 0, 180
-532.6215624809265 ,-76.6969621181488 ,968.000054359436, 0, 0, 180
-486.43818497657776 ,-72.10148125886917 ,910.0000262260437, 0, 0, 180
-445.1870918273926 ,-67.98139959573746 ,858.0000400543213, 0, 0, 180
-426.1951744556427 ,-66.07981771230698 ,834.0000510215759, 0, 0, 180
-414.6242141723633 ,-65.2875006198883 ,824.0000605583191, 0, 0, 180
-403.2100439071655 ,-64.49516862630844 ,814.0000104904175, 0, 0, 180
-392.44019985198975 ,-63.78208100795746 ,805.0000667572021, 0, 0, 180
-385.6487572193146 ,-63.702844083309174 ,804.0000200271606, 0, 0, 180
-381.2321722507477 ,-64.01977688074112 ,808.0000281333923, 0, 0, 180
-372.5769817829132 ,-63.623614609241486 ,803.0000329017639, 0, 0, 180
-353.0528247356415 ,-61.32587790489197 ,774.0000486373901, 0, 0, 180
-337.56983280181885 ,-59.661995619535446 ,753.000020980835, 0, 0, 180
-328.5825848579407 ,-59.10737067461014 ,746.0000514984131, 0, 0, 180
-320.57031989097595 ,-58.711208403110504 ,741.0000562667847, 0, 0, 180
-314.76038694381714 ,-58.711208403110504 ,741.0000562667847, 0, 0, 180
-310.61819195747375 ,-59.02813747525215 ,745.0000643730164, 0, 0, 180
-305.5950701236725 ,-59.186600148677826 ,747.0000386238098, 0, 0, 180
-300.13930797576904 ,-59.26583334803581 ,748.0000257492065, 0, 0, 180
-294.66789960861206 ,-59.3450628221035 ,749.0000128746033, 0, 0, 180
-117.03678965568542 ,-30.97986802458763 ,391.00003242492676, 0, 0, 180
-113.97107690572739 ,-30.97986802458763 ,391.00003242492676, 0, 0, 180
-110.62172055244446 ,-30.900634825229645 ,390.00001549720764, 0, 0, 180
-40.46232998371124 ,-78.99469882249832 ,997.0000386238098, 0, 0, 180
-32.35047310590744 ,-78.28161120414734 ,988.0000352859497, 0, 0, 180
-24.404650554060936 ,-77.64774560928345 ,980.0000190734863, 0, 0, 180
-16.550155356526375 ,-76.85542851686478 ,970.0000286102295, 0, 0, 180
-10.60604490339756,-70.17805427312851,983.0000400543213, 0,  0, 180
-18.16440187394619,-69.60691511631012,975.0000238418579, 0,  0, 180
-25.914955884218216,-69.89248842000961,979.0000319480896, 0,  0, 180
-33.76254439353943,-70.24944573640823,984.000027179718, 0,  0, 180
-41.77284985780716,-70.7491859793663,991.0000562667847, 0,  0, 180
-111.80371791124344,-27.985550463199615,392.0000195503235, 0,  0, 180
-114.58422243595123,-27.91416086256504,391.00003242492676, 0,  0, 180
-117.64993518590927,-27.91416086256504,391.00003242492676, 0,  0, 180
-121.02437764406204,-27.985550463199615,392.0000195503235, 0,  0, 180
-291.8925881385803,-52.75847390294075,739.0000224113464, 0,  0, 180
-298.49252104759216,-52.9012605547905,741.0000562667847, 0,  0, 180
-303.8918077945709,-52.829865366220474,740.0000095367432, 0,  0, 180
-308.43842029571533,-52.6156947016716,737.000048160553, 0,  0, 180
-314.2169713973999,-52.6156947016716,737.000048160553, 0,  0, 180
-320.8639323711395,-52.75847390294075,739.0000224113464, 0,  0, 180
-327.5422751903534,-52.9012605547905,741.0000562667847, 0,  0, 180
-336.5013003349304,-53.401000797748566,748.0000257492065, 0,  0, 180
-351.0625958442688,-54.75744232535362,767.0000195503235, 0,  0, 180
-365.45631289482117,-56.042492389678955,785.0000262260437, 0,  0, 180
-375.3983676433563,-56.61362782120705,793.0000424385071, 0,  0, 180
-382.0972442626953,-56.68501928448677,794.0000295639038, 0,  0, 180
-392.7243947982788,-57.327546179294586,803.0000329017639, 0,  0, 180
-404.98343110084534,-58.184247463941574,815.000057220459, 0,  0, 180
-416.925847530365,-58.96955356001854,826.0000348091125, 0,  0, 180
-428.0155897140503,-59.612080454826355,835.0000381469727, 0,  0, 180
-440.28735160827637,-60.39738655090332,846.0000157356262, 0,  0, 180
-449.0336775779724,-60.682956129312515,850.0000238418579, 0,  0, 180
-456.77050948143005,-60.82573905587196,852.0000576972961, 0,  0, 180
-310.6708228588104,-34.33941304683685,481.00003600120544, 0,  0, 180
-205.0856500864029,-22.131429985165596,310.0000023841858, 0,  0, 180
-207.51626789569855,-22.131429985165596,310.0000023841858, 0,  0, 180
-208.59239995479584,-21.988648921251297,308.00002813339233, 0,  0, 180
-211.00734174251556,-21.988648921251297,308.00002813339233, 0,  0, 180
-213.4222686290741,-21.988648921251297,308.00002813339233, 0,  0, 180
-215.13642370700836,-21.917255595326424,307.0000112056732, 0,  0, 180
-216.8349176645279,-21.8458641320467,306.0000240802765, 0,  0, 180
-218.51769089698792,-21.774472668766975,305.0000071525574, 0,  0, 180
-220.1848179101944,-21.70308120548725,304.00002002716064, 0,  0, 180
-222.56837785243988,-21.70308120548725,304.00002002716064, 0,  0, 180
-243.73522400856018,-21.060556173324585,295.00001668930054, 0,  0, 180
-245.21414935588837,-20.98916284739971,293.9999997615814, 0,  0, 180
-247.51931428909302,-20.98916284739971,293.9999997615814, 0,  0, 180
-248.12501668930054,-20.846381783485413,292.00002551078796, 0,  0, 180
-249.55689907073975,-20.77498845756054,291.00000858306885, 0,  0, 180
-250.97313523292542,-20.703596994280815,290.0000214576721, 0,  0, 180
-253.24693322181702,-20.703596994280815,290.0000214576721, 0,  0, 180
-255.52073121070862,-20.703596994280815,290.0000214576721, 0,  0, 180
-256.90555572509766,-20.63220366835594,289.000004529953, 0,  0, 180
-258.27476382255554,-20.560814067721367,288.0000174045563, 0,  0, 180
-261.87852025032043,-20.489420741796494,287.00000047683716, 0,  0, 180
-263.2084786891937,-20.41802927851677,286.00001335144043, 0,  0, 180
-264.5227611064911,-20.346639677882195,285.0000262260437, 0,  0, 180
-265.8213675022125,-20.27524635195732,284.0000092983246, 0,  0, 180
-267.10429787635803,-20.203854888677597,283.00002217292786, 0,  0, 180
-269.3232297897339,-20.203854888677597,283.00002217292786, 0,  0, 180
-271.54213190078735,-20.203854888677597,283.00002217292786, 0,  0, 180
-272.7936804294586,-20.132461562752724,282.00000524520874, 0,  0, 180
-273.0543613433838,-19.989678636193275,280.0000011920929, 0,  0, 180
-274.2667496204376,-19.91828717291355,279.00001406669617, 0,  0, 180
-277.4451673030853,-19.989678636193275,280.0000011920929, 0,  0, 180
-279.6405553817749,-19.989678636193275,280.0000011920929, 0,  0, 180
-278.81625294685364,-19.775504246354103,277.0000100135803, 0,  0, 180
-279.5409560203552 ,-17.540084198117256 ,276.0000228881836, 0, 0, 180
-278.38191390037537 ,-17.603633925318718 ,277.0000100135803, 0, 0, 180
-272.8477716445923 ,-17.66718551516533 ,278.00002694129944, 0, 0, 180
-272.6152837276459 ,-17.794286832213402 ,280.0000011920929, 0, 0, 180
-271.38569951057434 ,-17.857838422060013 ,281.000018119812, 0, 0, 180
-269.1824734210968 ,-17.857838422060013 ,281.000018119812, 0, 0, 180
-267.9293155670166 ,-17.921388149261475 ,282.00000524520874, 0, 0, 180
-266.66051149368286 ,-17.984941601753235 ,283.00002217292786, 0, 0, 180
-264.4416093826294 ,-17.984941601753235 ,283.00002217292786, 0, 0, 180
-264.0758454799652 ,-18.112042918801308 ,285.0000262260437, 0, 0, 180
-261.8412673473358 ,-18.112042918801308 ,285.0000262260437, 0, 0, 180
-260.51756739616394 ,-18.17559450864792 ,286.00001335144043, 0, 0, 180
-259.17816162109375 ,-18.23914423584938 ,287.00000047683716, 0, 0, 180
-257.8231394290924 ,-18.30269582569599 ,288.0000174045563, 0, 0, 180
-255.56501746177673 ,-18.30269582569599 ,288.0000174045563, 0, 0, 180
-254.18642163276672 ,-18.366245552897453 ,289.000004529953, 0, 0, 180
-252.79217958450317 ,-18.429799005389214 ,290.0000214576721, 0, 0, 180
-250.51838159561157 ,-18.429799005389214 ,290.0000214576721, 0, 0, 180
-248.24456870555878 ,-18.429799005389214 ,290.0000214576721, 0, 0, 180
-247.6671189069748 ,-18.556900322437286 ,292.00002551078796, 0, 0, 180
-246.2179660797119 ,-18.620450049638748 ,293.0000126361847, 0, 0, 180
-244.7531223297119 ,-18.68400163948536 ,293.9999997615814, 0, 0, 180
-243.27261745929718 ,-18.74755322933197 ,295.00001668930054, 0, 0, 180
-231.70022666454315 ,-19.128859043121338 ,301.00002884864807, 0, 0, 180
-222.0916748046875 ,-19.31951195001602 ,304.00002002716064, 0, 0, 180
-217.32452511787415 ,-19.31951195001602 ,304.00002002716064, 0, 0, 180
-215.64801037311554 ,-19.383063539862633 ,305.0000071525574, 0, 0, 180
-213.9558047056198 ,-19.446615129709244 ,306.0000240802765, 0, 0, 180
-211.5565538406372 ,-19.446615129709244 ,306.0000240802765, 0, 0, 180
-209.8408192396164 ,-19.510164856910706 ,307.0000112056732, 0, 0, 180
-208.10942351818085 ,-19.573716446757317 ,308.00002813339233, 0, 0, 180
-206.3623070716858 ,-19.637268036603928 ,309.00001525878906, 0, 0, 180
-203.9395421743393 ,-19.637268036603928 ,309.00001525878906, 0, 0, 180
-309.91655588150024 ,-30.568044632673264 ,481.00003600120544, 0, 0, 180
-454.3653428554535 ,-54.01837080717087 ,850.0000238418579, 0, 0, 180
-442.96038150787354 ,-53.446412086486816 ,841.0000205039978, 0, 0, 180
-429.6211302280426 ,-52.62025073170662 ,828.0000686645508, 0, 0, 180
-416.4856970310211 ,-51.79408937692642 ,815.000057220459, 0, 0, 180
-405.0636887550354 ,-51.15857720375061 ,805.0000667572021, 0, 0, 180
-392.80781149864197 ,-50.395965576171875 ,793.0000424385071, 0, 0, 180
-381.7151188850403 ,-49.76045340299606 ,783.0000519752502, 0, 0, 180
-371.7385530471802 ,-49.25204440951347 ,775.0000357627869, 0, 0, 180
-361.88745498657227 ,-48.743635416030884 ,767.0000195503235, 0, 0, 180
-351.2338399887085 ,-48.10812696814537 ,757.0000290870667, 0, 0, 180
-340.7370150089264 ,-47.47261852025986 ,747.0000386238098, 0, 0, 180
-331.29361271858215 ,-46.96420952677727 ,739.0000224113464, 0, 0, 180
-324.17798042297363 ,-46.773556619882584 ,736.0000610351562, 0, 0, 180
-318.40723752975464 ,-46.773556619882584 ,736.0000610351562, 0, 0, 180
-311.7869198322296 ,-46.64645344018936 ,734.000027179718, 0, 0, 180
-306.03188276290894 ,-46.64645344018936 ,734.000027179718, 0, 0, 180
-301.09500885009766 ,-46.773556619882584 ,736.0000610351562, 0, 0, 180
-295.7255244255066 ,-46.837106347084045 ,737.000048160553, 0, 0, 180
-124.11323189735413 ,-25.039104744791985 ,394.00002360343933, 0, 0, 180
-120.71683257818222 ,-24.975553154945374 ,393.0000066757202, 0, 0, 180
-117.33611673116684 ,-24.912001565098763 ,392.0000195503235, 0, 0, 180
-40.259409695863724 ,-63.042618334293365 ,992.0000433921814, 0, 0, 180
-32.05578401684761 ,-62.21645325422287 ,979.0000319480896, 0, 0, 180
-24.155624210834503 ,-61.64449453353882 ,970.0000286102295, 0, 0, 180
-16.56721904873848 ,-61.70804798603058 ,971.000075340271, 0, 0, 180
-10.422623716294765,-53.81618067622185,966.0000205039978, 0,  0, 180
-17.86631904542446,-53.42620983719826,959.0000510215759, 0,  0, 180
-25.570834055542946,-53.81618067622185,966.0000205039978, 0,  0, 180
-33.59098732471466,-54.54041436314583,979.0000319480896, 0,  0, 180
-41.941460222005844,-55.4317831993103,995.0000643730164, 0,  0, 180
-234.39717292785645,-43.39835047721863,779.0000438690186, 0,  0, 180
-121.6418519616127,-21.949872374534607,394.00002360343933, 0,  0, 180
-125.04765391349792,-22.005580365657806,395.00001072883606, 0,  0, 180
-128.46913933753967,-22.061292082071304,396.0000276565552, 0,  0, 180
-132.23856687545776,-22.17271365225315,398.000031709671, 0,  0, 180
-280.7149887084961,-43.00837591290474,772.0000147819519, 0,  0, 180
-286.3965332508087,-42.95266792178154,771.0000276565552, 0,  0, 180
-291.6831076145172,-42.84124821424484,769.0000534057617, 0,  0, 180
-305.9273660182953,-40.7242514193058,731.000006198883, 0,  0, 180
-311.2325370311737,-40.6685434281826,730.0000190734863, 0,  0, 180
-316.08790159225464,-40.557123720645905,728.0000448226929, 0,  0, 180
-321.79591059684753,-40.557123720645905,728.0000448226929, 0,  0, 180
-329.7532796859741,-40.8356748521328,733.0000400543213, 0,  0, 180
-338.7044668197632,-41.22564569115639,740.0000095367432, 0,  0, 180
-347.29987382888794,-41.55990853905678,746.0000514984131, 0,  0, 180
-357.4095666408539,-42.061302810907364,755.0000548362732, 0,  0, 180
-371.02892994880676,-42.95266792178154,771.0000276565552, 0,  0, 180
-381.9648325443268,-43.509770184755325,781.000018119812, 0,  0, 180
-392.063707113266,-43.95545274019241,789.0000343322754, 0,  0, 180
-403.8022458553314,-44.5682667195797,800.000011920929, 0,  0, 180
-414.6881699562073,-45.069657266139984,809.0000152587891, 0,  0, 180
-427.27649211883545,-45.738182961940765,821.0000395774841, 0,  0, 180
-303.12806367874146,-26.796670630574226,481.00003600120544, 0,  0, 180
-306.89945816993713,-26.796670630574226,481.00003600120544, 0,  0, 180
-203.10096442699432,-17.10307225584984,307.0000112056732, 0,  0, 180
-205.5080533027649,-17.10307225584984,307.0000112056732, 0,  0, 180
-207.23789930343628,-17.04736240208149,306.0000240802765, 0,  0, 180
-208.95205438137054,-16.99165068566799,305.0000071525574, 0,  0, 180
-210.65054833889008,-16.935940831899643,304.00002002716064, 0,  0, 180
-213.03412318229675,-16.935940831899643,304.00002002716064, 0,  0, 180
-215.41768312454224,-16.935940831899643,304.00002002716064, 0,  0, 180
-217.08478033542633,-16.880230978131294,303.0000030994415, 0,  0, 180
-220.1848179101944,-16.935940831899643,304.00002002716064, 0,  0, 180
-222.56837785243988,-16.935940831899643,304.00002002716064, 0,  0, 180
-224.95195269584656,-16.935940831899643,304.00002002716064, 0,  0, 180
-246.677428483963,-16.32312685251236,293.0000126361847, 0,  0, 180
-247.8417307138443,-16.100285574793816,289.000004529953, 0,  0, 180
-250.97313523292542,-16.155997291207314,290.0000214576721, 0,  0, 180
-252.37363576889038,-16.100285574793816,289.000004529953, 0,  0, 180
-252.8773844242096,-15.988864004611969,287.00000047683716, 0,  0, 180
-255.1276683807373,-15.988864004611969,287.00000047683716, 0,  0, 180
-257.377952337265,-15.988864004611969,287.00000047683716, 0,  0, 180
-258.7236166000366,-15.93315601348877,286.00001335144043, 0,  0, 180
-260.0536048412323,-15.87744615972042,285.0000262260437, 0,  0, 180
-262.2881829738617,-15.87744615972042,285.0000262260437, 0,  0, 180
-263.5945975780487,-15.821734443306923,284.0000092983246, 0,  0, 180
-264.88539576530457,-15.766024589538574,283.00002217292786, 0,  0, 180
-267.10429787635803,-15.766024589538574,283.00002217292786, 0,  0, 180
-268.3715224266052,-15.710312873125076,282.00000524520874, 0,  0, 180
-269.6231007575989,-15.654603019356728,281.000018119812, 0,  0, 180
-271.8263268470764,-15.654603019356728,281.000018119812, 0,  0, 180
-273.0543613433838,-15.598892234265804,280.0000011920929, 0,  0, 180
-274.2667496204376,-15.54318331182003,279.00001406669617, 0,  0, 180
-274.47253465652466,-15.431761741638184,277.0000100135803, 0,  0, 180
-276.64440870285034,-15.431761741638184,277.0000100135803, 0,  0, 180
-278.81625294685364,-15.431761741638184,277.0000100135803, 0,  0, 180
-278.528094291687 ,-13.164151459932327 ,275.0000059604645, 0, 0, 180
-276.37192606925964 ,-13.164151459932327 ,275.0000059604645, 0, 0, 180
-275.2128839492798 ,-13.212022371590137 ,276.0000228881836, 0, 0, 180
-274.038165807724 ,-13.259891420602798 ,277.0000100135803, 0, 0, 180
-272.8477716445923 ,-13.307761400938034 ,278.00002694129944, 0, 0, 180
-271.64167165756226 ,-13.355630449950695 ,279.00001406669617, 0, 0, 180
-270.4198956489563 ,-13.403499498963356 ,280.0000011920929, 0, 0, 180
-269.1824734210968 ,-13.451370410621166 ,281.000018119812, 0, 0, 180
-267.9293155670166 ,-13.499239459633827 ,282.00000524520874, 0, 0, 180
-265.7182514667511 ,-13.499239459633827 ,282.00000524520874, 0, 0, 180
-264.4416093826294 ,-13.547109439969063 ,283.00002217292786, 0, 0, 180
-262.22267746925354 ,-13.547109439969063 ,283.00002217292786, 0, 0, 180
-260.92252135276794 ,-13.594978488981724 ,284.0000092983246, 0, 0, 180
-259.6066892147064 ,-13.642849400639534 ,285.0000262260437, 0, 0, 180
-258.2751214504242 ,-13.690718449652195 ,286.00001335144043, 0, 0, 180
-256.03267550468445 ,-13.690718449652195 ,286.00001335144043, 0, 0, 180
-253.7902593612671 ,-13.690718449652195 ,286.00001335144043, 0, 0, 180
-251.54781341552734 ,-13.690718449652195 ,286.00001335144043, 0, 0, 180
-251.04877352714539 ,-13.786457479000092 ,288.0000174045563, 0, 0, 180
-249.65450167655945 ,-13.834326528012753 ,289.000004529953, 0, 0, 180
-226.85880959033966 ,-14.552371576428413 ,304.00002002716064, 0, 0, 180
-224.47523474693298 ,-14.552371576428413 ,304.00002002716064, 0, 0, 180
-222.0916748046875 ,-14.552371576428413 ,304.00002002716064, 0, 0, 180
-218.98536384105682 ,-14.504501596093178 ,303.0000030994415, 0, 0, 180
-216.6096270084381 ,-14.504501596093178 ,303.0000030994415, 0, 0, 180
-214.23391997814178 ,-14.504501596093178 ,303.0000030994415, 0, 0, 180
-211.85818314552307 ,-14.504501596093178 ,303.0000030994415, 0, 0, 180
-209.48246121406555 ,-14.504501596093178 ,303.0000030994415, 0, 0, 180
-207.79025554656982 ,-14.552371576428413 ,304.00002002716064, 0, 0, 180
-206.08235895633698 ,-14.600240625441074 ,305.0000071525574, 0, 0, 180
-204.3588012456894 ,-14.648111537098885 ,306.0000240802765, 0, 0, 180
-201.9595503807068 ,-14.648111537098885 ,306.0000240802765, 0, 0, 180
-199.56029951572418 ,-14.648111537098885 ,306.0000240802765, 0, 0, 180
-306.14516139030457 ,-23.02529849112034 ,481.00003600120544, 0, 0, 180
-302.3737967014313 ,-23.02529849112034 ,481.00003600120544, 0, 0, 180
-423.39473962783813 ,-39.06162828207016 ,816.0000443458557, 0, 0, 180
-410.3533923625946 ,-38.439322263002396 ,803.0000329017639, 0, 0, 180
-397.01274037361145 ,-37.769149988889694 ,789.0000343322754, 0, 0, 180
-385.873019695282 ,-37.29045391082764 ,779.0000438690186, 0, 0, 180
-377.8150975704193 ,-37.098973989486694 ,775.0000357627869, 0, 0, 180
-366.9419288635254 ,-36.62027791142464 ,765.00004529953, 0, 0, 180
-352.45102643966675 ,-35.75862571597099 ,747.0000386238098, 0, 0, 180
-341.95423126220703 ,-35.279929637908936 ,737.000048160553, 0, 0, 180
-335.719496011734 ,-35.2320596575737 ,736.0000610351562, 0, 0, 180
-327.7072310447693 ,-34.99270975589752 ,731.000006198883, 0, 0, 180
-319.7733759880066 ,-34.753359854221344 ,726.0000109672546, 0, 0, 180
-309.7548484802246 ,-34.27466377615929 ,716.0000205039978, 0, 0, 180
-302.8666079044342 ,-34.13105756044388 ,713.0000591278076, 0, 0, 180
-291.61038994789124 ,-36.95536404848099 ,772.0000147819519, 0, 0, 180
-286.6671085357666 ,-37.098973989486694 ,775.0000357627869, 0, 0, 180
-135.4120969772339 ,-19.147856160998344 ,400.0000059604645, 0, 0, 180
-131.94513320922852 ,-19.099988043308258 ,399.00001883506775, 0, 0, 180
-128.49386036396027 ,-19.052118062973022 ,398.000031709671, 0, 0, 180
-239.40624296665192 ,-36.38092800974846 ,760.0000500679016, 0, 0, 180
-234.67598855495453 ,-36.5724079310894 ,764.0000581741333, 0, 0, 180
-232.57693648338318 ,-37.19471022486687 ,777.0000100135803, 0, 0, 180
-40.29999300837517 ,-47.534555196762085 ,993.0000305175781, 0, 0, 180
-32.08852559328079 ,-46.91224917769432 ,980.0000190734863, 0, 0, 180
-24.130722507834435 ,-46.38568311929703 ,969.0000414848328, 0, 0, 180
-16.362473368644714 ,-45.90698704123497 ,959.0000510215759, 0, 0, 180
-10.347097180783749,-38.38777169585228,959.0000510215759, 0,  0, 180
-17.903579398989677,-38.467828184366226,961.0000252723694, 0,  0, 180
-25.67671798169613,-38.82808983325958,970.0000286102295, 0,  0, 180
-33.728234469890594,-39.34846445918083,983.0000400543213, 0,  0, 180
-42.11007058620453,-39.9889312684536,999.000072479248, 0,  0, 180
-233.19359123706818,-31.022442504763603,775.0000357627869, 0,  0, 180
-236.80023849010468,-30.70220910012722,767.0000195503235, 0,  0, 180
-241.86433851718903,-30.5821243673563,764.0000581741333, 0,  0, 180
-129.7668069601059,-16.01158268749714,400.0000059604645, 0,  0, 180
-132.9030841588974,-16.01158268749714,400.0000059604645, 0,  0, 180
-136.0393613576889,-16.01158268749714,400.0000059604645, 0,  0, 180
-139.1756385564804,-16.01158268749714,400.0000059604645, 0,  0, 180
-323.1219947338104,-29.261166229844093,731.000006198883, 0,  0, 180
-329.7532796859741,-29.34122644364834,733.0000400543213, 0,  0, 180
-335.5005085468292,-29.34122644364834,733.0000400543213, 0,  0, 180
-341.2477374076843,-29.34122644364834,733.0000400543213, 0,  0, 180
-353.14902663230896,-29.861602932214737,746.0000514984131, 0,  0, 180
-367.6603436470032,-30.5821243673563,764.0000581741333, 0,  0, 180
-377.5631785392761,-30.902354046702385,772.0000147819519, 0,  0, 180
-386.10073924064636,-31.10249899327755,777.0000100135803, 0,  0, 180
-395.7262337207794,-31.38270229101181,784.000039100647, 0,  0, 180
-408.02446007728577,-31.863052397966385,796.000063419342, 0,  0, 180
-419.9904203414917,-32.30337053537369,807.0000410079956, 0,  0, 180
-200.04014670848846,-12.248861603438854,306.0000240802765, 0,  0, 180
-202.43939757347107,-12.248861603438854,306.0000240802765, 0,  0, 180
-204.16922867298126,-12.208831496536732,305.0000071525574, 0,  0, 180
-205.88339865207672,-12.168803252279758,304.00002002716064, 0,  0, 180
-208.2669734954834,-12.168803252279758,304.00002002716064, 0,  0, 180
-209.95759963989258,-12.12877407670021,303.0000030994415, 0,  0, 180
-212.3333364725113,-12.12877407670021,303.0000030994415, 0,  0, 180
-214.00046348571777,-12.088744901120663,302.0000159740448, 0,  0, 180
-216.36833250522614,-12.088744901120663,302.0000159740448, 0,  0, 180
-218.73623132705688,-12.088744901120663,302.0000159740448, 0,  0, 180
-226.5876978635788,-12.12877407670021,303.0000030994415, 0,  0, 180
-228.2077819108963,-12.088744901120663,302.0000159740448, 0,  0, 180
-249.24227595329285,-11.52834016829729,288.0000174045563, 0,  0, 180
-250.62710046768188,-11.488310061395168,287.00000047683716, 0,  0, 180
-251.99630856513977,-11.448281817138195,286.00001335144043, 0,  0, 180
-254.23872470855713,-11.448281817138195,286.00001335144043, 0,  0, 180
-255.58438897132874,-11.408253572881222,285.0000262260437, 0,  0, 180
-257.8189969062805,-11.408253572881222,285.0000262260437, 0,  0, 180
-260.0536048412323,-11.408253572881222,285.0000262260437, 0,  0, 180
-261.3678574562073,-11.3682234659791,284.0000092983246, 0,  0, 180
-262.6664638519287,-11.328195221722126,283.00002217292786, 0,  0, 180
-263.9493942260742,-11.288166046142578,282.00000524520874, 0,  0, 180
-266.1604583263397,-11.288166046142578,282.00000524520874, 0,  0, 180
-267.41987466812134,-11.24813687056303,281.000018119812, 0,  0, 180
-268.66358518600464,-11.208107694983482,280.0000011920929, 0,  0, 180
-270.8589732646942,-11.208107694983482,280.0000011920929, 0,  0, 180
-269.1535949707031,-11.04799285531044,276.0000228881836, 0,  0, 180
-270.3346014022827,-11.007962748408318,275.0000059604645, 0,  0, 180
-273.48166704177856,-11.04799285531044,276.0000228881836, 0,  0, 180
-275.6457030773163,-11.04799285531044,276.0000228881836, 0,  0, 180
-276.8031358718872,-11.007962748408318,275.0000059604645, 0,  0, 180
-277.5152921676636 ,-8.819585666060448 ,274.00001883506775, 0, 0, 180
-275.36696195602417 ,-8.819585666060448 ,274.00001883506775, 0, 0, 180
-274.2157280445099 ,-8.851773105561733 ,275.0000059604645, 0, 0, 180
-273.04887771606445 ,-8.883962407708168 ,276.0000228881836, 0, 0, 180
-270.88484168052673 ,-8.883962407708168 ,276.0000228881836, 0, 0, 180
-268.720805644989 ,-8.883962407708168 ,276.0000228881836, 0, 0, 180
-268.488347530365 ,-8.948339149355888 ,278.00002694129944, 0, 0, 180
-268.2245075702667 ,-9.012714959681034 ,280.0000011920929, 0, 0, 180
-266.02908968925476 ,-9.012714959681034 ,280.0000011920929, 0, 0, 180
-263.8337016105652 ,-9.012714959681034 ,280.0000011920929, 0, 0, 180
-263.5071575641632 ,-9.077091701328754 ,282.00000524520874, 0, 0, 180
-263.1492614746094 ,-9.141468442976475 ,284.0000092983246, 0, 0, 180
-260.0037753582001 ,-9.109280072152615 ,283.00002217292786, 0, 0, 180
-225.36630928516388 ,-9.720857255160809 ,302.0000159740448, 0, 0, 180
-220.63054144382477 ,-9.720857255160809 ,302.0000159740448, 0, 0, 180
-217.5399363040924 ,-9.688668884336948 ,301.00002884864807, 0, 0, 180
-215.17989039421082 ,-9.688668884336948 ,301.00002884864807, 0, 0, 180
-212.81985938549042 ,-9.688668884336948 ,301.00002884864807, 0, 0, 180
-210.45979857444763 ,-9.688668884336948 ,301.00002884864807, 0, 0, 180
-208.7911069393158 ,-9.720857255160809 ,302.0000159740448, 0, 0, 180
-207.10672438144684 ,-9.753044694662094 ,303.0000030994415, 0, 0, 180
-205.40669560432434 ,-9.785233996808529 ,304.00002002716064, 0, 0, 180
-203.69094610214233 ,-9.817421436309814 ,305.0000071525574, 0, 0, 180
-201.2995332479477 ,-9.817421436309814 ,305.0000071525574, 0, 0, 180
-400.643914937973 ,-25.235602632164955 ,784.000039100647, 0, 0, 180
-392.9872512817383 ,-25.139037519693375 ,781.000018119812, 0, 0, 180
-382.4055790901184 ,-24.849342182278633 ,772.0000147819519, 0, 0, 180
-369.52751874923706 ,-24.39870685338974 ,758.0000162124634, 0, 0, 180
-357.8283488750458 ,-24.012448266148567 ,746.0000514984131, 0, 0, 180
-347.260981798172 ,-23.690566420555115 ,736.0000610351562, 0, 0, 180
-339.63432908058167 ,-23.561812937259674 ,732.0000529289246, 0, 0, 180
-332.9826295375824 ,-23.497434332966805 ,730.0000190734863, 0, 0, 180
-325.46570897102356 ,-23.368682712316513 ,726.0000109672546, 0, 0, 180
-146.9932496547699 ,-13.06843664497137 ,406.000018119812, 0, 0, 180
-142.3930823802948 ,-12.93968316167593 ,402.0000100135803, 0, 0, 180
-138.5483741760254 ,-12.87530642002821 ,400.0000059604645, 0, 0, 180
-135.4120969772339 ,-12.87530642002821 ,400.0000059604645, 0, 0, 180
-252.97752022743225 ,-24.62402544915676 ,765.00004529953, 0, 0, 180
-247.94793128967285 ,-24.720588698983192 ,768.0000066757202, 0, 0, 180
-244.44636702537537 ,-24.978095665574074 ,776.0000228881836, 0, 0, 180
-238.97632956504822 ,-25.042472407221794 ,778.0000567436218, 0, 0, 180
-48.134222626686096 ,-31.99513629078865 ,994.0000176429749, 0, 0, 180
-39.7723987698555 ,-31.544502824544907 ,980.0000190734863, 0, 0, 180
-31.79384022951126 ,-31.254809349775314 ,971.000075340271, 0, 0, 180
-24.006208404898643 ,-31.029490754008293 ,964.0000462532043, 0, 0, 180
-16.34541153907776 ,-30.836360529065132 ,958.0000638961792, 0, 0, 180
-10.314729064702988,-23.276284337043762,956.000030040741, 0,  0, 180
-17.9594699293375,-23.471064865589142,964.0000462532043, 0,  0, 180
-25.703189894557,-23.641498759388924,971.000075340271, 0,  0, 180
-33.52236747741699,-23.78758415579796,977.0000576972961, 0,  0, 180
-41.60424321889877,-24.031059816479683,987.000048160553, 0,  0, 180
-240.81380665302277,-18.99111084640026,780.0000309944153, 0,  0, 180
-244.71352994441986,-18.82067881524563,773.0000615119934, 0,  0, 180
-248.82784485816956,-18.674591556191444,767.0000195503235, 0,  0, 180
-254.17715311050415,-18.62589828670025,765.00004529953, 0,  0, 180
-136.37946546077728,-9.763378649950027,401.0000228881836, 0,  0, 180
-139.8715078830719,-9.7877262160182,402.0000100135803, 0,  0, 180
-144.44659650325775,-9.88511648029089,406.000018119812, 0,  0, 180
-149.0844041109085,-9.982507675886154,410.0000262260437, 0,  0, 180
-153.41344475746155,-10.055549442768097,413.0000174045563, 0,  0, 180
-157.78955817222595,-10.128592140972614,416.00000858306885, 0,  0, 180
-333.2119584083557,-17.725037410855293,728.0000448226929, 0,  0, 180
-341.2477374076843,-17.84677430987358,733.0000400543213, 0,  0, 180
-350.7820963859558,-18.04155670106411,741.0000562667847, 0,  0, 180
-358.51696133613586,-18.1389469653368,745.0000643730164, 0,  0, 180
-365.82547426223755,-18.211988732218742,748.0000257492065, 0,  0, 180
-375.16871094703674,-18.382422626018524,755.0000548362732, 0,  0, 180
-391.18343591690063,-18.869373947381973,775.0000357627869, 0,  0, 180
-452.5716304779053,-20.25718428194523,832.0000171661377, 0,  0, 180
-469.02742981910706,-20.695440471172333,850.0000238418579, 0,  0, 180
-565.9049153327942,-23.00846204161644,945.0000524520874, 0,  0, 180
-582.4145674705505,-23.373674601316452,960.0000381469727, 0,  0, 180
-605.3046584129333,-23.982364684343338,985.0000739097595, 0,  0, 180
-201.77781581878662,-7.426011376082897,305.0000071525574, 0,  0, 180
-203.49983870983124,-7.401663810014725,304.00002002716064, 0,  0, 180
-205.88339865207672,-7.401663810014725,304.00002002716064, 0,  0, 180
-206.8967968225479,-7.35296867787838,302.0000159740448, 0,  0, 180
-208.57176184654236,-7.328621577471495,301.00002884864807, 0,  0, 180
-209.53026413917542,-7.2799259796738625,299.0000247955322, 0,  0, 180
-211.87463402748108,-7.2799259796738625,299.0000247955322, 0,  0, 180
-214.93543684482574,-7.304273545742035,300.00001192092896, 0,  0, 180
-217.28764474391937,-7.304273545742035,300.00001192092896, 0,  0, 180
-220.37199139595032,-7.328621577471495,301.00002884864807, 0,  0, 180
-222.7320373058319,-7.328621577471495,301.00002884864807, 0,  0, 180
-249.75386261940002,-6.9634076207876205,286.00001335144043, 0,  0, 180
-251.11520290374756,-6.939060054719448,285.0000262260437, 0,  0, 180
-253.34981083869934,-6.939060054719448,285.0000262260437, 0,  0, 180
-254.6876072883606,-6.914712022989988,284.0000092983246, 0,  0, 180
-256.0097277164459,-6.890364922583103,283.00002217292786, 0,  0, 180
-257.3161721229553,-6.866016890853643,282.00000524520874, 0,  0, 180
-258.6069405078888,-6.841669790446758,281.000018119812, 0,  0, 180
-260.81016659736633,-6.841669790446758,281.000018119812, 0,  0, 180
-262.0773911476135,-6.8173217587172985,280.0000011920929, 0,  0, 180
-262.38515973091125,-6.768627092242241,278.00002694129944, 0,  0, 180
-268.9242959022522,-6.768627092242241,278.00002694129944, 0,  0, 180
-271.10400795936584,-6.768627092242241,278.00002694129944, 0,  0, 180
-271.31763100624084,-6.719931960105896,276.0000228881836, 0,  0, 180
-272.4907696247101,-6.695583928376436,275.0000059604645, 0,  0, 180
-273.6482620239258,-6.671236827969551,274.00001883506775, 0,  0, 180
-275.7965922355652,-6.671236827969551,274.00001883506775, 0,  0, 180
-276.50243043899536 ,-4.506380762904882 ,273.00000190734863, 0, 0, 180
-275.36696195602417 ,-4.5228879898786545 ,274.00001883506775, 0, 0, 180
-273.2186019420624 ,-4.5228879898786545 ,274.00001883506775, 0, 0, 180
-272.05953001976013 ,-4.539394751191139 ,275.0000059604645, 0, 0, 180
-270.88484168052673 ,-4.555901978164911 ,276.0000228881836, 0, 0, 180
-270.66805958747864 ,-4.588915966451168 ,278.00002694129944, 0, 0, 180
-268.488347530365 ,-4.588915966451168 ,278.00002694129944, 0, 0, 180
-266.30863547325134 ,-4.588915966451168 ,278.00002694129944, 0, 0, 180
-264.1289234161377 ,-4.588915966451168 ,278.00002694129944, 0, 0, 180
-261.94921135902405 ,-4.588915966451168 ,278.00002694129944, 0, 0, 180
-260.7038915157318 ,-4.605422727763653 ,279.00001406669617, 0, 0, 180
-259.44292545318604 ,-4.62192902341485 ,280.0000011920929, 0, 0, 180
-257.24753737449646 ,-4.62192902341485 ,280.0000011920929, 0, 0, 180
-255.9630572795868 ,-4.638436250388622 ,281.000018119812, 0, 0, 180
-255.56594133377075 ,-4.671450238674879 ,283.00002217292786, 0, 0, 180
-254.24224138259888 ,-4.687956999987364 ,284.0000092983246, 0, 0, 180
-252.01550126075745 ,-4.687956999987364 ,284.0000092983246, 0, 0, 180
-250.66828727722168 ,-4.704464226961136 ,285.0000262260437, 0, 0, 180
-248.4336942434311 ,-4.704464226961136 ,285.0000262260437, 0, 0, 180
-218.43884885311127 ,-4.935560282319784 ,299.0000247955322, 0, 0, 180
-216.0944789648056 ,-4.935560282319784 ,299.0000247955322, 0, 0, 180
-213.75010907649994 ,-4.935560282319784 ,299.0000247955322, 0, 0, 180
-210.6987088918686 ,-4.919053521007299 ,298.0000078678131, 0, 0, 180
-209.061399102211 ,-4.935560282319784 ,299.0000247955322, 0, 0, 180
-207.4083834886551 ,-4.952067043632269 ,300.00001192092896, 0, 0, 180
-206.42322301864624 ,-4.985081031918526 ,302.0000159740448, 0, 0, 180
-204.73100244998932 ,-5.00158779323101 ,303.0000030994415, 0, 0, 180
-203.02312076091766 ,-5.0180950202047825 ,304.00002002716064, 0, 0, 180
-199.9795436859131 ,-5.00158779323101 ,303.0000030994415, 0, 0, 180
-556.6584467887878 ,-15.384421683847904 ,932.0000410079956, 0, 0, 180
-536.3833904266357 ,-15.021270141005516 ,910.0000262260437, 0, 0, 180
-524.5956778526306 ,-14.889216050505638 ,902.0000696182251, 0, 0, 180
-455.03926277160645 ,-13.651198707520962 ,827.0000219345093, 0, 0, 180
-443.13111901283264 ,-13.486129231750965 ,817.0000314712524, 0, 0, 180
-433.5179924964905 ,-13.387088663876057 ,811.0000491142273, 0, 0, 180
-366.115003824234 ,-12.3966746032238 ,751.0000467300415, 0, 0, 180
-359.7469925880432 ,-12.38016877323389 ,750.0000596046448, 0, 0, 180
-165.62774777412415 ,-6.949400994926691 ,421.00003361701965, 0, 0, 180
-161.555677652359 ,-6.916387472301722 ,419.0000295639038, 0, 0, 180
-157.89268910884857 ,-6.8998802453279495 ,418.0000126361847, 0, 0, 180
-153.87549996376038 ,-6.866866257041693 ,416.00000858306885, 0, 0, 180
-149.52760934829712 ,-6.8173459731042385 ,413.0000174045563, 0, 0, 180
-267.7839994430542 ,-12.479209341108799 ,756.0000419616699, 0, 0, 180
-263.5883092880249 ,-12.561744078993797 ,761.0000371932983, 0, 0, 180
-257.9600512981415 ,-12.578250840306282 ,762.0000243186951, 0, 0, 180
-251.98543071746826 ,-12.578250840306282 ,762.0000243186951, 0, 0, 180
-246.33368849754333 ,-12.594756670296192 ,763.0000114440918, 0, 0, 180
-240.98128080368042 ,-12.627771124243736 ,765.00004529953, 0, 0, 180
-238.36198449134827 ,-12.809346430003643 ,776.0000228881836, 0, 0, 180
-40.29999300837517 ,-16.391342505812645 ,993.0000305175781, 0, 0, 180
-32.252244651317596 ,-16.259288415312767 ,985.0000739097595, 0, 0, 180
-24.47935938835144 ,-16.22627303004265 ,983.0000400543213, 0, 0, 180
-16.635466367006302 ,-16.09421707689762 ,975.0000238418579, 0, 0, 180
-10.465781204402447,-8.406214416027069,970.0000286102295, 0,  0, 180
-18.127141520380974,-8.432213217020035,973.0000495910645, 0,  0, 180
-25.835543870925903,-8.458212018013,976.0000705718994, 0,  0, 180
-33.69392454624176,-8.510209619998932,982.0000529289246, 0,  0, 180
-41.73069819808006,-8.579539135098457,990.0000691413879, 0,  0, 180
-49.94291812181473,-8.65753460675478,999.000072479248, 0,  0, 180
-237.10897564888,-6.655642297118902,768.0000066757202, 0,  0, 180
-240.91459810733795,-6.594978738576174,761.0000371932983, 0,  0, 180
-247.20576405525208,-6.603645160794258,762.0000243186951, 0,  0, 180
-253.51262092590332,-6.612311117351055,763.0000114440918, 0,  0, 180
-259.8351836204529,-6.6209775395691395,764.0000581741333, 0,  0, 180
-264.43371176719666,-6.586312782019377,760.0000500679016, 0,  0, 180
-269.32528614997864,-6.560313981026411,757.0000290870667, 0,  0, 180
-275.9879529476166,-6.57764682546258,759.0000629425049, 0,  0, 180
-154.89929914474487,-3.613805864006281,417.00002551078796, 0,  0, 180
-158.92747044563293,-3.6311382427811623,419.0000295639038, 0,  0, 180
-162.98700869083405,-3.6484706215560436,421.00003361701965, 0,  0, 180
-167.077898979187,-3.665803000330925,423.0000078678131, 0,  0, 180
-172.0058023929596,-3.7004677578806877,427.0000159740448, 0,  0, 180
-176.58577859401703,-3.7264663260430098,430.0000071525574, 0,  0, 180
-502.25353240966797,-7.565593346953392,873.0000257492065, 0,  0, 180
-276.58823132514954,-4.055782221257687,468.00002455711365, 0,  0, 180
-281.4553380012512,-4.073114600032568,470.0000286102295, 0,  0, 180
-197.4252462387085,-2.6171926874667406,302.0000159740448, 0,  0, 180
-199.79313015937805,-2.6171926874667406,302.0000159740448, 0,  0, 180
-202.83041894435883,-2.6258588768541813,303.0000030994415, 0,  0, 180
-205.20614087581635,-2.6258588768541813,303.0000030994415, 0,  0, 180
-206.8967968225479,-2.6171926874667406,302.0000159740448, 0,  0, 180
-207.87882804870605,-2.5998603086918592,300.00001192092896, 0,  0, 180
-209.53026413917542,-2.5911941193044186,299.0000247955322, 0,  0, 180
-212.5832438468933,-2.5998603086918592,300.00001192092896, 0,  0, 180
-213.50252628326416,-2.582527929916978,298.0000078678131, 0,  0, 180
-215.83905816078186,-2.582527929916978,298.0000078678131, 0,  0, 180
-220.51210701465607,-2.582527929916978,298.0000078678131, 0,  0, 180
-222.84862399101257,-2.582527929916978,298.0000078678131, 0,  0, 180
-248.88060986995697,-2.469867467880249,285.0000262260437, 0,  0, 180
-250.23409724235535,-2.4612010456621647,284.0000092983246, 0,  0, 180
-251.5718936920166,-2.452534856274724,283.00002217292786, 0,  0, 180
-252.89401412010193,-2.4438686668872833,282.00000524520874, 0,  0, 180
-254.20048832893372,-2.4352024774998426,281.000018119812, 0,  0, 180
-255.4912269115448,-2.4265360552817583,280.0000011920929, 0,  0, 180
-256.76631927490234,-2.4178700987249613,279.00001406669617, 0,  0, 180
-258.02573561668396,-2.4092039093375206,278.00002694129944, 0,  0, 180
