-1358.0474853515625 ,-72.61824607849121 ,1517.0000791549683, 0, 0, 180
-1347.9279279708862 ,-72.71398603916168 ,1519.0000534057617, 0, 0, 180
-1342.1746492385864 ,-73.04907590150833 ,1526.0000228881836, 0, 0, 180
-1289.159655570984 ,-72.09168374538422 ,1506.00004196167, 0, 0, 180
-1268.0217027664185 ,-71.56512141227722 ,1495.0001239776611, 0, 0, 180
-1263.8628482818604 ,-71.99594378471375 ,1504.0000677108765, 0, 0, 180
-1261.2278461456299 ,-72.52251356840134 ,1515.0001049041748, 0, 0, 180
-1249.3492364883423 ,-72.52251356840134 ,1515.0001049041748, 0, 0, 180
-1226.035237312317 ,-71.85233384370804 ,1501.0000467300415, 0, 0, 180
-1207.7945470809937 ,-71.46937400102615 ,1493.0000305175781, 0, 0, 180
-1197.690725326538 ,-71.56512141227722 ,1495.0001239776611, 0, 0, 180
-1187.5555515289307 ,-71.66086137294769 ,1497.0000982284546, 0, 0, 180
-1175.8179664611816 ,-71.66086137294769 ,1497.0000982284546, 0, 0, 180
-1167.1909093856812 ,-71.85233384370804 ,1501.0000467300415, 0, 0, 180
-1167.7383184432983 ,-72.61824607849121 ,1517.0000791549683, 0, 0, 180
-1162.7012491226196 ,-73.04907590150833 ,1526.0000228881836, 0, 0, 180
-1149.2282152175903 ,-72.95333594083786 ,1524.0000486373901, 0, 0, 180
-1135.786533355713 ,-72.85759598016739 ,1522.0000743865967, 0, 0, 180
-1121.6377019882202 ,-72.71398603916168 ,1519.0000534057617, 0, 0, 180
-1109.7277402877808 ,-72.71398603916168 ,1519.0000534057617, 0, 0, 180
-1093.481421470642 ,-72.42677360773087 ,1513.0001306533813, 0, 0, 180
-1075.1844644546509 ,-71.99594378471375 ,1504.0000677108765, 0, 0, 180
-1066.2202835083008 ,-72.18741625547409 ,1508.0000162124634, 0, 0, 180
-1054.3965101242065 ,-72.18741625547409 ,1508.0000162124634, 0, 0, 180
-1039.8073196411133 ,-71.99594378471375 ,1504.0000677108765, 0, 0, 180
-1032.1160554885864 ,-72.28316366672516 ,1510.0001096725464, 0, 0, 180
-1029.7361612319946 ,-72.95333594083786 ,1524.0000486373901, 0, 0, 180
-1013.1120681762695 ,-72.61824607849121 ,1517.0000791549683, 0, 0, 180
-999.8977780342102 ,-72.52251356840134 ,1515.0001049041748, 0, 0, 180
-983.4539294242859 ,-72.18741625547409 ,1508.0000162124634, 0, 0, 180
-972.9188680648804 ,-72.28316366672516 ,1510.0001096725464, 0, 0, 180
-961.0794186592102 ,-72.28316366672516 ,1510.0001096725464, 0, 0, 180
-959.2980742454529 ,-73.04907590150833 ,1526.0000228881836, 0, 0, 180
-946.0916519165039 ,-72.95333594083786 ,1524.0000486373901, 0, 0, 180
-928.6258816719055 ,-72.52251356840134 ,1515.0001049041748, 0, 0, 180
-913.7217402458191 ,-72.28316366672516 ,1510.0001096725464, 0, 0, 180
-901.8822908401489 ,-72.28316366672516 ,1510.0001096725464, 0, 0, 180
-895.3477144241333 ,-72.71398603916168 ,1519.0000534057617, 0, 0, 180
-872.9690313339233 ,-71.85233384370804 ,1501.0000467300415, 0, 0, 180
-852.5938987731934 ,-71.1342915892601 ,1486.0000610351562, 0, 0, 180
-839.8107886314392 ,-71.03855162858963 ,1484.0000867843628, 0, 0, 180
-833.197832107544 ,-71.46937400102615 ,1493.0000305175781, 0, 0, 180
-830.8455944061279 ,-72.28316366672516 ,1510.0001096725464, 0, 0, 180
-822.8028416633606 ,-72.61824607849121 ,1517.0000791549683, 0, 0, 180
-810.9084963798523 ,-72.61824607849121 ,1517.0000791549683, 0, 0, 180
-795.3272461891174 ,-72.28316366672516 ,1510.0001096725464, 0, 0, 180
-778.8180112838745 ,-71.85233384370804 ,1501.0000467300415, 0, 0, 180
-762.9609107971191 ,-71.46937400102615 ,1493.0000305175781, 0, 0, 180
-748.7388253211975 ,-71.23003154993057 ,1488.0000352859497, 0, 0, 180
-735.0905537605286 ,-71.03855162858963 ,1484.0000867843628, 0, 0, 180
-717.117428779602 ,-70.41624933481216 ,1471.000075340271, 0, 0, 180
-703.6651372909546 ,-70.22476941347122 ,1467.000126838684, 0, 0, 180
-691.2192106246948 ,-70.12902945280075 ,1465.000033378601, 0, 0, 180
-678.8046360015869 ,-70.03328949213028 ,1463.0000591278076, 0, 0, 180
-670.982837677002 ,-70.41624933481216 ,1471.000075340271, 0, 0, 180
-667.0702695846558 ,-71.23003154993057 ,1488.0000352859497, 0, 0, 180
-655.4033160209656 ,-71.23003154993057 ,1488.0000352859497, 0, 0, 180
-644.6016430854797 ,-71.32577151060104 ,1490.0001287460327, 0, 0, 180
-632.9190135002136 ,-71.32577151060104 ,1490.0001287460327, 0, 0, 180
-623.3210563659668 ,-71.56512141227722 ,1495.0001239776611, 0, 0, 180
-616.0992980003357 ,-72.09168374538422 ,1506.00004196167, 0, 0, 180
-607.9025268554688 ,-72.52251356840134 ,1515.0001049041748, 0, 0, 180
-595.2370166778564 ,-72.42677360773087 ,1513.0001306533813, 0, 0, 180
-578.7471532821655 ,-71.85233384370804 ,1501.0000467300415, 0, 0, 180
-560.5568289756775 ,-71.03855162858963 ,1484.0000867843628, 0, 0, 180
-549.6610403060913 ,-71.1342915892601 ,1486.0000610351562, 0, 0, 180
-539.4579768180847 ,-71.32577151060104 ,1490.0001287460327, 0, 0, 180
-527.7753472328186 ,-71.32577151060104 ,1490.0001287460327, 0, 0, 180
-514.014482498169 ,-71.03855162858963 ,1484.0000867843628, 0, 0, 180
-501.0247826576233 ,-70.84707170724869 ,1480.0000190734863, 0, 0, 180
-492.72745847702026 ,-71.32577151060104 ,1490.0001287460327, 0, 0, 180
-481.04482889175415 ,-71.32577151060104 ,1490.0001287460327, 0, 0, 180
-466.8421745300293 ,-70.94281166791916 ,1482.0001125335693, 0, 0, 180
-452.4577558040619 ,-70.51198184490204 ,1473.0000495910645, 0, 0, 180
-440.3097629547119 ,-70.41624933481216 ,1471.000075340271, 0, 0, 180
-429.9420118331909 ,-70.60772180557251 ,1475.000023841858, 0, 0, 180
-422.0643937587738 ,-71.23003154993057 ,1488.0000352859497, 0, 0, 180
-410.3974401950836 ,-71.23003154993057 ,1488.0000352859497, 0, 0, 180
-396.5867757797241 ,-70.84707170724869 ,1480.0000190734863, 0, 0, 180
-386.543333530426 ,-71.1342915892601 ,1486.0000610351562, 0, 0, 180
-372.11695313453674 ,-70.60772180557251 ,1475.000023841858, 0, 0, 180
-353.46314311027527 ,-69.21950727701187 ,1446.000099182129, 0, 0, 180
-341.1790728569031 ,-69.02802735567093 ,1442.0000314712524, 0, 0, 180
-334.6767723560333 ,-70.03328949213028 ,1463.0000591278076, 0, 0, 180
-324.08955693244934 ,-70.22476941347122 ,1467.000126838684, 0, 0, 180
-313.0134046077728 ,-70.3205093741417 ,1469.0001010894775, 0, 0, 180
-301.90590023994446 ,-70.41624933481216 ,1471.000075340271, 0, 0, 180
-289.97746109962463 ,-70.3205093741417 ,1469.0001010894775, 0, 0, 180
-277.7012586593628 ,-70.12902945280075 ,1465.000033378601, 0, 0, 180
-265.48779010772705 ,-69.93754953145981 ,1461.0000848770142, 0, 0, 180
-255.07581233978271 ,-70.22476941347122 ,1467.000126838684, 0, 0, 180
-245.23386359214783 ,-70.70346921682358 ,1477.000117301941, 0, 0, 180
-234.1277301311493 ,-70.84707170724869 ,1480.0000190734863, 0, 0, 180
-223.1249213218689 ,-71.03855162858963 ,1484.0000867843628, 0, 0, 180
-211.77437901496887 ,-71.1342915892601 ,1486.0000610351562, 0, 0, 180
-199.31507110595703 ,-70.84707170724869 ,1480.0000190734863, 0, 0, 180
-172.77488112449646 ,-69.50671970844269 ,1452.0000219345093, 0, 0, 180
-161.1679047346115 ,-69.41097974777222 ,1450.0000476837158, 0, 0, 180
-150.41877329349518 ,-69.69819962978363 ,1456.0000896453857, 0, 0, 180
-139.67101275920868 ,-70.03328949213028 ,1463.0000591278076, 0, 0, 180
-128.02483141422272 ,-69.93754953145981 ,1461.0000848770142, 0, 0, 180
-117.52702295780182 ,-70.51198184490204 ,1473.0000495910645, 0, 0, 180
-107.41662979125977 ,-71.46937400102615 ,1493.0000305175781, 0, 0, 180
-95.71047127246857 ,-71.46937400102615 ,1493.0000305175781, 0, 0, 180
-83.72300118207932 ,-71.23003154993057 ,1488.0000352859497, 0, 0, 180
-71.1359903216362 ,-70.3205093741417 ,1469.0001010894775, 0, 0, 180
-59.293344616889954 ,-69.93754953145981 ,1461.0000848770142, 0, 0, 180
-48.59120026230812 ,-71.03855162858963 ,1484.0000867843628, 0, 0, 180
-51.60454288125038,-60.20355224609375,1504.0000677108765, 0,  0, 180
-63.1018728017807,-59.92335081100464,1497.0000982284546, 0,  0, 180
-74.2894634604454,-59.48302894830704,1486.0000610351562, 0,  0, 180
-85.07322520017624,-58.88259783387184,1471.000075340271, 0,  0, 180
-97.19794243574142,-59.2428557574749,1480.0000190734863, 0,  0, 180
-109.0962290763855,-59.40297245979309,1484.0000867843628, 0,  0, 180
-119.83688920736313,-58.96265432238579,1473.0000495910645, 0,  0, 180
-130.85106015205383,-58.72248485684395,1467.000126838684, 0,  0, 180
-142.15926826000214,-58.642420917749405,1465.000033378601, 0,  0, 180
-153.64587306976318,-58.642420917749405,1465.000033378601, 0,  0, 180
-164.9070531129837,-58.56236442923546,1463.0000591278076, 0,  0, 180
-177.10132896900177,-58.802541345357895,1469.0001010894775, 0,  0, 180
-189.1328990459442,-58.96265432238579,1473.0000495910645, 0,  0, 180
-200.40975511074066,-58.88259783387184,1471.000075340271, 0,  0, 180
-212.51973509788513,-59.042710810899734,1475.000023841858, 0,  0, 180
-225.75588524341583,-59.48302894830704,1486.0000610351562, 0,  0, 180
-236.44857108592987,-59.2428557574749,1480.0000190734863, 0,  0, 180
-246.20917439460754,-58.802541345357895,1469.0001010894775, 0,  0, 180
-256.32357597351074,-58.48230794072151,1461.0000848770142, 0,  0, 180
-266.8624222278595,-58.28216299414635,1456.0000896453857, 0,  0, 180
-278.66071462631226,-58.362219482660294,1458.0000638961792, 0,  0, 180
-290.6893491744995,-58.48230794072151,1461.0000848770142, 0,  0, 180
-301.5241324901581,-58.362219482660294,1458.0000638961792, 0,  0, 180
-311.6679787635803,-58.122046291828156,1452.0000219345093, 0,  0, 180
-324.3876099586487,-58.362219482660294,1458.0000638961792, 0,  0, 180
-336.9709551334381,-58.56236442923546,1463.0000591278076, 0,  0, 180
-348.91822934150696,-58.642420917749405,1465.000033378601, 0,  0, 180
-361.880898475647,-58.88259783387184,1471.000075340271, 0,  0, 180
-375.6992220878601,-59.2428557574749,1480.0000190734863, 0,  0, 180
-386.5183889865875,-59.12277102470398,1477.000117301941, 0,  0, 180
-397.5599706172943,-59.042710810899734,1475.000023841858, 0,  0, 180
-410.51185131073,-59.2428557574749,1480.0000190734863, 0,  0, 180
-419.5491671562195,-58.88259783387184,1471.000075340271, 0,  0, 180
-430.4967224597931,-58.802541345357895,1469.0001010894775, 0,  0, 180
-445.92633843421936,-59.322915971279144,1482.0001125335693, 0,  0, 180
-458.7811827659607,-59.48302894830704,1486.0000610351562, 0,  0, 180
-466.31693840026855,-58.96265432238579,1473.0000495910645, 0,  0, 180
-476.5686094760895,-58.802541345357895,1469.0001010894775, 0,  0, 180
-488.751083612442,-58.88259783387184,1471.000075340271, 0,  0, 180
-502.3253560066223,-59.12277102470398,1477.000117301941, 0,  0, 180
-513.210117816925,-59.042710810899734,1475.000023841858, 0,  0, 180
-524.7751474380493,-59.042710810899734,1475.000023841858, 0,  0, 180
-537.0674729347229,-59.12277102470398,1477.000117301941, 0,  0, 180
-549.762487411499,-59.2428557574749,1480.0000190734863, 0,  0, 180
-559.4701766967773,-59.042710810899734,1475.000023841858, 0,  0, 180
-575.293779373169,-59.48302894830704,1486.0000610351562, 0,  0, 180
-588.5249972343445,-59.64314937591553,1490.0001287460327, 0,  0, 180
-603.833019733429,-60.003407299518585,1499.000072479248, 0,  0, 180
-616.407573223114,-60.08346378803253,1501.0000467300415, 0,  0, 180
-625.6654262542725,-59.84329432249069,1495.0001239776611, 0,  0, 180
-634.4027519226074,-59.56308916211128,1488.0000352859497, 0,  0, 180
-643.4646248817444,-59.322915971279144,1482.0001125335693, 0,  0, 180
-651.1062979698181,-58.96265432238579,1473.0000495910645, 0,  0, 180
-659.0566635131836,-58.642420917749405,1465.000033378601, 0,  0, 180
-667.3393249511719,-58.362219482660294,1458.0000638961792, 0,  0, 180
-674.1155982017517,-57.961929589509964,1448.0000734329224, 0,  0, 180
-688.3092522621155,-58.2021065056324,1454.0001153945923, 0,  0, 180
-704.0406465530396,-58.56236442923546,1463.0000591278076, 0,  0, 180
-720.4023003578186,-58.96265432238579,1473.0000495910645, 0,  0, 180
-737.4176979064941,-59.40297245979309,1484.0000867843628, 0,  0, 180
-752.0817518234253,-59.64314937591553,1490.0001287460327, 0,  0, 180
-765.3021216392517,-59.76323038339615,1493.0000305175781, 0,  0, 180
-778.0491709709167,-59.84329432249069,1495.0001239776611, 0,  0, 180
-789.7710204124451,-59.84329432249069,1495.0001239776611, 0,  0, 180
-816.4783716201782,-60.08346378803253,1501.0000467300415, 0,  0, 180
-826.0401487350464,-59.92335081100464,1497.0000982284546, 0,  0, 180
-836.6583585739136,-59.84329432249069,1495.0001239776611, 0,  0, 180
-850.6500720977783,-60.003407299518585,1499.000072479248, 0,  0, 180
-871.6084361076355,-60.64387038350105,1515.0001049041748, 0,  0, 180
-891.6512727737427,-61.204276978969574,1529.0000438690186, 0,  0, 180
-906.0037136077881,-61.364393681287766,1533.000111579895, 0,  0, 180
-915.6281352043152,-61.204276978969574,1529.0000438690186, 0,  0, 180
-930.0432801246643,-61.364393681287766,1533.000111579895, 0,  0, 180
-951.8952965736389,-62.004853039979935,1549.0000247955322, 0,  0, 180
-969.0194725990295,-62.32508644461632,1557.0000410079956, 0,  0, 180
-969.2535996437073,-61.56453862786293,1538.0001068115234, 0,  0, 180
-959.6190452575684,-60.20355224609375,1504.0000677108765, 0,  0, 180
-981.0997247695923,-60.803987085819244,1519.0000534057617, 0,  0, 180
-1003.4693479537964,-61.44445016980171,1535.0000858306885, 0,  0, 180
-1020.135760307312,-61.72465160489082,1542.0000553131104, 0,  0, 180
-1029.5485258102417,-61.56453862786293,1538.0001068115234, 0,  0, 180
-1030.7714939117432,-60.92407554388046,1522.0000743865967, 0,  0, 180
-1034.4840288162231,-60.44372916221619,1510.0001096725464, 0,  0, 180
-1054.6386241912842,-60.92407554388046,1522.0000743865967, 0,  0, 180
-1074.2806196212769,-61.364393681287766,1533.000111579895, 0,  0, 180
-1073.5453367233276,-60.64387038350105,1515.0001049041748, 0,  0, 180
-1077.543020248413,-60.20355224609375,1504.0000677108765, 0,  0, 180
-1090.783953666687,-60.2836087346077,1506.00004196167, 0,  0, 180
-1098.9313125610352,-60.08346378803253,1501.0000467300415, 0,  0, 180
-1106.2604188919067,-59.84329432249069,1495.0001239776611, 0,  0, 180
-1116.4865493774414,-59.76323038339615,1493.0000305175781, 0,  0, 180
-1138.0162239074707,-60.2836087346077,1506.00004196167, 0,  0, 180
-1142.9529190063477,-59.92335081100464,1497.0000982284546, 0,  0, 180
-1151.6050100326538,-59.76323038339615,1493.0000305175781, 0,  0, 180
-1163.311243057251,-59.76323038339615,1493.0000305175781, 0,  0, 180
-1178.1654357910156,-59.92335081100464,1497.0000982284546, 0,  0, 180
-1182.7492713928223,-59.56308916211128,1488.0000352859497, 0,  0, 180
-1191.205382347107,-59.40297245979309,1484.0000867843628, 0,  0, 180
-1206.0831785202026,-59.56308916211128,1488.0000352859497, 0,  0, 180
-1225.115418434143,-59.92335081100464,1497.0000982284546, 0,  0, 180
-1231.0694456100464,-59.64314937591553,1490.0001287460327, 0,  0, 180
-1242.7520751953125,-59.64314937591553,1490.0001287460327, 0,  0, 180
-1252.7508735656738,-59.56308916211128,1488.0000352859497, 0,  0, 180
-1268.6665058135986,-59.76323038339615,1493.0000305175781, 0,  0, 180
-1294.9516773223877,-60.44372916221619,1510.0001096725464, 0,  0, 180
-1317.1762228012085,-60.92407554388046,1522.0000743865967, 0,  0, 180
-1330.4699659347534,-60.44372916221619,1510.0001096725464, 0,  0, 180
-1338.753581047058,-60.2836087346077,1506.00004196167, 0,  0, 180
-1360.426425933838,-60.7239305973053,1517.0000791549683, 0,  0, 180
-1410.3150367736816,-62.405142933130264,1559.000015258789, 0,  0, 180
-1470.6543684005737,-63.96627426147461,1598.0000495910645, 0,  0, 180
-1443.2977437973022,-61.72465160489082,1542.0000553131104, 0,  0, 180
-1446.893572807312,-61.364393681287766,1533.000111579895, 0,  0, 180
-1463.6718034744263,-61.56453862786293,1538.0001068115234, 0,  0, 180
-1482.4472665786743,-61.84474006295204,1545.0000762939453, 0,  0, 180
-1491.6590452194214,-61.72465160489082,1542.0000553131104, 0,  0, 180
-1510.575771331787,-62.004853039979935,1549.0000247955322, 0,  0, 180
-1537.4666452407837,-62.60529160499573,1564.000129699707, 0,  0, 180
-1527.9301404953003,-61.72465160489082,1542.0000553131104, 0,  0, 180
-1514.629602432251 ,-49.28023740649223 ,1531.000018119812, 0, 0, 180
-1516.3661241531372 ,-49.730874598026276 ,1545.0000762939453, 0, 0, 180
-1494.5160150527954 ,-49.408990889787674 ,1535.0000858306885, 0, 0, 180
-1478.6173105239868 ,-49.28023740649223 ,1531.000018119812, 0, 0, 180
-1466.6132926940918 ,-49.28023740649223 ,1531.000018119812, 0, 0, 180
-1456.5094709396362 ,-49.34461787343025 ,1533.000111579895, 0, 0, 180
-1444.4897174835205 ,-49.34461787343025 ,1533.000111579895, 0, 0, 180
-1440.8795833587646 ,-49.634307622909546 ,1542.0000553131104, 0, 0, 180
-1436.9113445281982 ,-50.34245178103447 ,1564.000129699707, 0, 0, 180
-1346.4096784591675 ,-48.41115325689316 ,1504.0000677108765, 0, 0, 180
-1336.3920450210571 ,-48.47552999854088 ,1506.00004196167, 0, 0, 180
-1340.415596961975 ,-49.05492067337036 ,1524.0000486373901, 0, 0, 180
-1340.6702280044556 ,-49.505557864904404 ,1538.0001068115234, 0, 0, 180
-1324.2919445037842 ,-49.34461787343025 ,1533.000111579895, 0, 0, 180
-1295.1518297195435 ,-48.70085045695305 ,1513.0001306533813, 0, 0, 180
-1280.7443141937256 ,-48.60428720712662 ,1510.0001096725464, 0, 0, 180
-1280.6694507598877 ,-49.05492067337036 ,1524.0000486373901, 0, 0, 180
-1262.8928422927856 ,-48.82960394024849 ,1517.0000791549683, 0, 0, 180
-1243.5766458511353 ,-48.5399067401886 ,1508.0000162124634, 0, 0, 180
-1228.4857034683228 ,-48.41115325689316 ,1504.0000677108765, 0, 0, 180
-1212.6485109329224 ,-48.250213265419006 ,1499.000072479248, 0, 0, 180
-1197.690725326538 ,-48.121463507413864 ,1495.0001239776611, 0, 0, 180
-1193.1085586547852 ,-48.41115325689316 ,1504.0000677108765, 0, 0, 180
-1186.0288381576538 ,-48.60428720712662 ,1510.0001096725464, 0, 0, 180
-1169.5237159729004 ,-48.41115325689316 ,1504.0000677108765, 0, 0, 180
-1146.9546556472778 ,-47.960519790649414 ,1490.0001287460327, 0, 0, 180
-1129.1764974594116 ,-47.70301282405853 ,1482.0001125335693, 0, 0, 180
-1117.5565719604492 ,-47.70301282405853 ,1482.0001125335693, 0, 0, 180
-1100.7128953933716 ,-47.47769236564636 ,1475.000023841858, 0, 0, 180
-1090.6248092651367 ,-47.54207283258438 ,1477.000117301941, 0, 0, 180
-1082.6969146728516 ,-47.70301282405853 ,1482.0001125335693, 0, 0, 180
-1080.472469329834 ,-48.121463507413864 ,1495.0001239776611, 0, 0, 180
-1075.1844644546509 ,-48.41115325689316 ,1504.0000677108765, 0, 0, 180
-1077.5330066680908 ,-49.05492067337036 ,1524.0000486373901, 0, 0, 180
-1073.275089263916 ,-49.408990889787674 ,1535.0000858306885, 0, 0, 180
-1058.474063873291 ,-49.28023740649223 ,1531.000018119812, 0, 0, 180
-1040.5470132827759 ,-49.569934606552124 ,1540.000081062317, 0, 0, 180
-1037.8221273422241 ,-50.02056807279587 ,1554.0000200271606, 0, 0, 180
-1013.0977630615234 ,-49.408990889787674 ,1535.0000858306885, 0, 0, 180
-984.7583174705505 ,-48.60428720712662 ,1510.0001096725464, 0, 0, 180
-960.0325226783752 ,-47.960519790649414 ,1490.0001287460327, 0, 0, 180
-945.8039402961731 ,-47.83176630735397 ,1486.0000610351562, 0, 0, 180
-956.7835927009583 ,-48.99054393172264 ,1522.0000743865967, 0, 0, 180
-957.2659134864807 ,-49.634307622909546 ,1542.0000553131104, 0, 0, 180
-931.0776591300964 ,-48.89397695660591 ,1519.0000534057617, 0, 0, 180
-913.7217402458191 ,-48.60428720712662 ,1510.0001096725464, 0, 0, 180
-906.0631990432739 ,-48.82960394024849 ,1517.0000791549683, 0, 0, 180
-899.4737267494202 ,-49.11929368972778 ,1526.0000228881836, 0, 0, 180
-890.4167413711548 ,-49.28023740649223 ,1531.000018119812, 0, 0, 180
-873.2489347457886 ,-48.99054393172264 ,1522.0000743865967, 0, 0, 180
-852.2608280181885 ,-48.47552999854088 ,1506.00004196167, 0, 0, 180
-834.3139886856079 ,-48.121463507413864 ,1495.0001239776611, 0, 0, 180
-819.8410272598267 ,-47.960519790649414 ,1490.0001287460327, 0, 0, 180
-807.0735931396484 ,-47.896143049001694 ,1488.0000352859497, 0, 0, 180
-793.2684421539307 ,-47.76738956570625 ,1484.0000867843628, 0, 0, 180
-786.3731980323792 ,-48.057083040475845 ,1493.0000305175781, 0, 0, 180
-775.7048010826111 ,-48.121463507413864 ,1495.0001239776611, 0, 0, 180
-761.4278793334961 ,-47.960519790649414 ,1490.0001287460327, 0, 0, 180
-747.7324604988098 ,-47.83176630735397 ,1486.0000610351562, 0, 0, 180
-733.109176158905 ,-47.63863608241081 ,1480.0000190734863, 0, 0, 180
-714.1923904418945 ,-47.15581238269806 ,1465.000033378601, 0, 0, 180
-702.7057409286499 ,-47.15581238269806 ,1465.000033378601, 0, 0, 180
-686.9727969169617 ,-46.86611890792847 ,1456.0000896453857, 0, 0, 180
-670.9169745445251 ,-46.544235199689865 ,1446.000099182129, 0, 0, 180
-663.228452205658 ,-46.80174216628075 ,1454.0001153945923, 0, 0, 180
-660.345733165741 ,-47.41331934928894 ,1473.0000495910645, 0, 0, 180
-650.5582928657532 ,-47.54207283258438 ,1477.000117301941, 0, 0, 180
-636.7419362068176 ,-48.250213265419006 ,1499.000072479248, 0, 0, 180
-632.4936747550964 ,-48.82960394024849 ,1517.0000791549683, 0, 0, 180
-624.2811679840088 ,-49.11929368972778 ,1526.0000228881836, 0, 0, 180
-604.2912006378174 ,-48.47552999854088 ,1506.00004196167, 0, 0, 180
-582.2542905807495 ,-47.63863608241081 ,1480.0000190734863, 0, 0, 180
-569.4934129714966 ,-47.54207283258438 ,1477.000117301941, 0, 0, 180
-560.5568289756775 ,-47.76738956570625 ,1484.0000867843628, 0, 0, 180
-547.4416613578796 ,-47.63863608241081 ,1480.0000190734863, 0, 0, 180
-533.3030819892883 ,-47.41331934928894 ,1473.0000495910645, 0, 0, 180
-524.2332220077515 ,-47.63863608241081 ,1480.0000190734863, 0, 0, 180
-515.3999924659729 ,-47.896143049001694 ,1488.0000352859497, 0, 0, 180
-501.70183181762695 ,-47.70301282405853 ,1482.0001125335693, 0, 0, 180
-483.13745856285095 ,-47.02705889940262 ,1461.0000848770142, 0, 0, 180
-470.06797790527344 ,-46.86611890792847 ,1456.0000896453857, 0, 0, 180
-462.1170461177826 ,-47.22019284963608 ,1467.000126838684, 0, 0, 180
-455.2222788333893 ,-47.70301282405853 ,1482.0001125335693, 0, 0, 180
-439.7111237049103 ,-47.2845658659935 ,1469.0001010894775, 0, 0, 180
-427.6101589202881 ,-47.22019284963608 ,1467.000126838684, 0, 0, 180
-418.9443290233612 ,-47.54207283258438 ,1477.000117301941, 0, 0, 180
-409.2942476272583 ,-47.76738956570625 ,1484.0000867843628, 0, 0, 180
-396.5867757797241 ,-47.63863608241081 ,1480.0000190734863, 0, 0, 180
-383.1617534160614 ,-47.41331934928894 ,1473.0000495910645, 0, 0, 180
-372.6215362548828 ,-47.54207283258438 ,1477.000117301941, 0, 0, 180
-362.75193095207214 ,-47.76738956570625 ,1484.0000867843628, 0, 0, 180
-350.16992688179016 ,-47.63863608241081 ,1480.0000190734863, 0, 0, 180
-336.5068733692169 ,-47.34894260764122 ,1471.000075340271, 0, 0, 180
-321.2175965309143 ,-46.80174216628075 ,1454.0001153945923, 0, 0, 180
-308.11259150505066 ,-46.544235199689865 ,1446.000099182129, 0, 0, 180
-297.18542098999023 ,-46.608611941337585 ,1448.0000734329224, 0, 0, 180
-287.01651096343994 ,-46.80174216628075 ,1454.0001153945923, 0, 0, 180
-278.08037400245667 ,-47.22019284963608 ,1467.000126838684, 0, 0, 180
-267.66836643218994 ,-47.41331934928894 ,1473.0000495910645, 0, 0, 180
-256.119042634964 ,-47.41331934928894 ,1473.0000495910645, 0, 0, 180
-245.23386359214783 ,-47.54207283258438 ,1477.000117301941, 0, 0, 180
-233.0203652381897 ,-47.41331934928894 ,1473.0000495910645, 0, 0, 180
-220.5689251422882 ,-47.22019284963608 ,1467.000126838684, 0, 0, 180
-208.21155607700348 ,-47.02705889940262 ,1461.0000848770142, 0, 0, 180
-197.29499518871307 ,-47.15581238269806 ,1465.000033378601, 0, 0, 180
-186.56936287879944 ,-47.34894260764122 ,1471.000075340271, 0, 0, 180
-174.79774355888367 ,-47.2845658659935 ,1469.0001010894775, 0, 0, 180
-163.27977180480957 ,-47.2845658659935 ,1469.0001010894775, 0, 0, 180
-152.17502415180206 ,-47.41331934928894 ,1473.0000495910645, 0, 0, 180
-140.43475687503815 ,-47.34894260764122 ,1471.000075340271, 0, 0, 180
-128.3753365278244 ,-47.15581238269806 ,1465.000033378601, 0, 0, 180
-116.72914773225784 ,-47.09143564105034 ,1463.0000591278076, 0, 0, 180
-105.68991303443909 ,-47.2845658659935 ,1469.0001010894775, 0, 0, 180
-93.46675872802734 ,-46.93049564957619 ,1458.0000638961792, 0, 0, 180
-82.42889493703842 ,-47.15581238269806 ,1465.000033378601, 0, 0, 180
-73.12140613794327 ,-48.60428720712662 ,1510.0001096725464, 0, 0, 180
-62.05305829644203 ,-49.21586066484451 ,1529.0000438690186, 0, 0, 180
-49.737218767404556 ,-48.89397695660591 ,1519.0000534057617, 0, 0, 180
-51.36436223983765,-36.44832596182823,1497.0000982284546, 0,  0, 180
-63.186176121234894,-36.49701923131943,1499.000072479248, 0,  0, 180
-74.2894634604454,-36.18049994111061,1486.0000610351562, 0,  0, 180
-85.07322520017624,-35.8152873814106,1471.000075340271, 0,  0, 180
-96.4755266904831,-35.7665941119194,1469.0001010894775, 0,  0, 180
-107.6994389295578,-35.669200122356415,1465.000033378601, 0,  0, 180
-119.02333796024323,-35.62050685286522,1463.0000591278076, 0,  0, 180
-130.49426674842834,-35.62050685286522,1463.0000591278076, 0,  0, 180
-142.353355884552,-35.71789711713791,1467.000126838684, 0,  0, 180
-154.27514910697937,-35.8152873814106,1471.000075340271, 0,  0, 180
-165.58337211608887,-35.7665941119194,1469.0001010894775, 0,  0, 180
-175.7751852273941,-35.49876809120178,1458.0000638961792, 0,  0, 180
-186.17969751358032,-35.3039875626564,1450.0000476837158, 0,  0, 180
-198.36615025997162,-35.45007482171059,1456.0000896453857, 0,  0, 180
-211.94341778755188,-35.8152873814106,1471.000075340271, 0,  0, 180
-223.4770506620407,-35.8152873814106,1471.000075340271, 0,  0, 180
-235.3302389383316,-35.863980650901794,1473.0000495910645, 0,  0, 180
-247.21477925777435,-35.91267764568329,1475.000023841858, 0,  0, 180
-258.7797939777374,-35.91267764568329,1475.000023841858, 0,  0, 180
-269.97825503349304,-35.863980650901794,1473.0000495910645, 0,  0, 180
-279.6163260936737,-35.62050685286522,1463.0000591278076, 0,  0, 180
-287.30693459510803,-35.15790402889252,1444.0001249313354, 0,  0, 180
-298.62886667251587,-35.15790402889252,1444.0001249313354, 0,  0, 180
-312.09731101989746,-35.40138155221939,1454.0001153945923, 0,  0, 180
-326.8349766731262,-35.7665941119194,1469.0001010894775, 0,  0, 180
-341.80787205696106,-36.131806671619415,1484.0000867843628, 0,  0, 180
-358.19077491760254,-35.45007482171059,1456.0000896453857, 0,  0, 180
-370.1145052909851,-35.49876809120178,1458.0000638961792, 0,  0, 180
-384.9482238292694,-35.8152873814106,1471.000075340271, 0,  0, 180
-397.5599706172943,-35.91267764568329,1475.000023841858, 0,  0, 180
-412.17610239982605,-36.18049994111061,1486.0000610351562, 0,  0, 180
-422.68651723861694,-36.08311340212822,1482.0001125335693, 0,  0, 180
-428.15229296684265,-35.57181358337402,1461.0000848770142, 0,  0, 180
-439.60753083229065,-35.57181358337402,1461.0000848770142, 0,  0, 180
-455.38508892059326,-35.91267764568329,1475.000023841858, 0,  0, 180
-466.31693840026855,-35.863980650901794,1473.0000495910645, 0,  0, 180
-477.8662621974945,-35.863980650901794,1473.0000495910645, 0,  0, 180
-490.0800883769989,-35.91267764568329,1475.000023841858, 0,  0, 180
-504.7060251235962,-36.131806671619415,1484.0000867843628, 0,  0, 180
-515.6457424163818,-36.08311340212822,1482.0001125335693, 0,  0, 180
-527.2656679153442,-36.08311340212822,1482.0001125335693, 0,  0, 180
-541.0672426223755,-36.229196935892105,1488.0000352859497, 0,  0, 180
-552.7341365814209,-36.229196935892105,1488.0000352859497, 0,  0, 180
-562.8839135169983,-36.131806671619415,1484.0000867843628, 0,  0, 180
-574.5195150375366,-36.131806671619415,1484.0000867843628, 0,  0, 180
-588.5249972343445,-36.2778939306736,1490.0001287460327, 0,  0, 180
-611.8895411491394,-36.98397055268288,1519.0000534057617, 0,  0, 180
-629.5488476753235,-37.32483834028244,1533.000111579895, 0,  0, 180
-634.0355277061462,-36.88658028841019,1515.0001049041748, 0,  0, 180
-639.9452686309814,-36.54571622610092,1501.0000467300415, 0,  0, 180
-649.1090655326843,-36.399632692337036,1495.0001239776611, 0,  0, 180
-658.6207747459412,-36.2778939306736,1490.0001287460327, 0,  0, 180
-665.8046841621399,-36.034416407346725,1480.0000190734863, 0,  0, 180
-670.5433130264282,-35.669200122356415,1465.000033378601, 0,  0, 180
-680.1677346229553,-35.57181358337402,1461.0000848770142, 0,  0, 180
-695.4101324081421,-35.7665941119194,1469.0001010894775, 0,  0, 180
-706.928014755249,-35.7665941119194,1469.0001010894775, 0,  0, 180
-715.5115604400635,-35.62050685286522,1463.0000591278076, 0,  0, 180
-731.9515943527222,-35.863980650901794,1473.0000495910645, 0,  0, 180
-750.0627040863037,-36.18049994111061,1486.0000610351562, 0,  0, 180
-780.130922794342,-36.49701923131943,1499.000072479248, 0,  0, 180
-794.5233583450317,-36.08311340212822,1482.0001125335693, 0,  0, 180
-824.93656873703,-36.399632692337036,1495.0001239776611, 0,  0, 180
-831.6215872764587,-36.18049994111061,1486.0000610351562, 0,  0, 180
-850.6500720977783,-36.49701923131943,1499.000072479248, 0,  0, 180
-875.6356239318848,-37.05701604485512,1522.0000743865967, 0,  0, 180
-891.2286758422852,-36.716148257255554,1508.0000162124634, 0,  0, 180
-903.0524492263794,-36.716148257255554,1508.0000162124634, 0,  0, 180
-914.8762226104736,-36.716148257255554,1508.0000162124634, 0,  0, 180
-929.7725558280945,-36.83788701891899,1513.0001306533813, 0,  0, 180
-944.675624370575,-36.49701923131943,1499.000072479248, 0,  0, 180
-946.8581676483154,-36.131806671619415,1484.0000867843628, 0,  0, 180
-958.493709564209,-36.131806671619415,1484.0000867843628, 0,  0, 180
-978.6277413368225,-36.44832596182823,1497.0000982284546, 0,  0, 180
-1002.273440361023,-36.88658028841019,1515.0001049041748, 0,  0, 180
-1023.5238075256348,-37.22744807600975,1529.0000438690186, 0,  0, 180
-1027.3852348327637,-36.93527728319168,1517.0000791549683, 0,  0, 180
-1037.9093885421753,-36.88658028841019,1515.0001049041748, 0,  0, 180
-1049.7881174087524,-36.88658028841019,1515.0001049041748, 0,  0, 180
-1058.1629276275635,-36.76484525203705,1510.0001096725464, 0,  0, 180
-1068.5850381851196,-36.716148257255554,1508.0000162124634, 0,  0, 180
-1080.4086923599243,-36.716148257255554,1508.0000162124634, 0,  0, 180
-1085.7138633728027,-36.49701923131943,1499.000072479248, 0,  0, 180
-1086.4851474761963,-36.131806671619415,1484.0000867843628, 0,  0, 180
-1102.5606393814087,-36.2778939306736,1490.0001287460327, 0,  0, 180
-1122.4690675735474,-36.54571622610092,1501.0000467300415, 0,  0, 180
-1141.0388946533203,-36.76484525203705,1510.0001096725464, 0,  0, 180
-1148.2974290847778,-36.618757992982864,1504.0000677108765, 0,  0, 180
-1167.0318841934204,-36.83788701891899,1513.0001306533813, 0,  0, 180
-1187.4656677246094,-37.10570931434631,1524.0000486373901, 0,  0, 180
-1203.3500671386719,-37.22744807600975,1529.0000438690186, 0,  0, 180
-1212.953805923462,-37.15440258383751,1526.0000228881836, 0,  0, 180
-1214.4837379455566,-36.83788701891899,1513.0001306533813, 0,  0, 180
-1222.2939729690552,-36.716148257255554,1508.0000162124634, 0,  0, 180
-1243.1198358535767,-36.98397055268288,1519.0000534057617, 0,  0, 180
-1260.8133554458618,-37.15440258383751,1526.0000228881836, 0,  0, 180
-1275.280475616455,-37.22744807600975,1529.0000438690186, 0,  0, 180
-1287.268877029419,-37.22744807600975,1529.0000438690186, 0,  0, 180
-1289.060354232788,-36.93527728319168,1517.0000791549683, 0,  0, 180
-1302.669882774353,-36.98397055268288,1519.0000534057617, 0,  0, 180
-1328.426718711853,-37.373531609773636,1535.0000858306885, 0,  0, 180
-1343.0819511413574,-37.44657710194588,1538.0001068115234, 0,  0, 180
-1341.04323387146,-37.05701604485512,1522.0000743865967, 0,  0, 180
-1328.9753198623657,-36.399632692337036,1495.0001239776611, 0,  0, 180
-1340.6970500946045,-36.399632692337036,1495.0001239776611, 0,  0, 180
-1374.1298913955688,-36.98397055268288,1519.0000534057617, 0,  0, 180
-1396.9895839691162,-37.276141345500946,1531.000018119812, 0,  0, 180
-1412.674903869629,-37.373531609773636,1535.0000858306885, 0,  0, 180
-1431.207299232483,-37.54396364092827,1542.0000553131104, 0,  0, 180
-1443.2977437973022,-37.54396364092827,1542.0000553131104, 0,  0, 180
-1448.7812519073486,-37.373531609773636,1535.0000858306885, 0,  0, 180
-1458.9134454727173,-37.32483834028244,1533.000111579895, 0,  0, 180
-1464.2164707183838,-37.15440258383751,1526.0000228881836, 0,  0, 180
-1460.7038497924805,-36.76484525203705,1510.0001096725464, 0,  0, 180
-1470.5928564071655,-36.716148257255554,1508.0000162124634, 0,  0, 180
-1491.26398563385,-36.93527728319168,1517.0000791549683, 0,  0, 180
-1503.1583309173584,-36.93527728319168,1517.0000791549683, 0,  0, 180
-1498.8008737564087 ,-25.007938966155052 ,1515.0001049041748, 0, 0, 180
-1482.0148944854736 ,-24.92540515959263 ,1510.0001096725464, 0, 0, 180
-1464.3336534500122 ,-24.82636272907257 ,1504.0000677108765, 0, 0, 180
-1465.096354484558 ,-25.04095248878002 ,1517.0000791549683, 0, 0, 180
-1475.234866142273 ,-25.42061172425747 ,1540.000081062317, 0, 0, 180
-1465.0603532791138 ,-25.45362524688244 ,1542.0000553131104, 0, 0, 180
-1455.7968378067017 ,-25.503145530819893 ,1545.0000762939453, 0, 0, 180
-1440.8795833587646 ,-25.45362524688244 ,1542.0000553131104, 0, 0, 180
-1413.0240678787231 ,-25.3875982016325 ,1538.0001068115234, 0, 0, 180
-1396.410584449768 ,-25.305064395070076 ,1533.000111579895, 0, 0, 180
-1371.7479705810547 ,-25.07396601140499 ,1519.0000534057617, 0, 0, 180
-1341.9336080551147 ,-24.743828922510147 ,1499.000072479248, 0, 0, 180
-1338.1667137145996 ,-24.89238977432251 ,1508.0000162124634, 0, 0, 180
-1358.8858842849731 ,-25.503145530819893 ,1545.0000762939453, 0, 0, 180
-1358.9757680892944 ,-25.73424205183983 ,1559.000015258789, 0, 0, 180
-1345.0244665145874 ,-25.70122852921486 ,1557.0000410079956, 0, 0, 180
-1318.2642459869385 ,-25.42061172425747 ,1540.000081062317, 0, 0, 180
-1298.5559701919556 ,-25.272049009799957 ,1531.000018119812, 0, 0, 180
-1289.9131774902344 ,-25.338077917695045 ,1535.0000858306885, 0, 0, 180
-1282.0402383804321 ,-25.42061172425747 ,1540.000081062317, 0, 0, 180
-1269.9655294418335 ,-25.42061172425747 ,1540.000081062317, 0, 0, 180
-1246.4555501937866 ,-25.189513340592384 ,1526.0000228881836, 0, 0, 180
-1227.2099256515503 ,-25.04095248878002 ,1517.0000791549683, 0, 0, 180
-1213.7134075164795 ,-25.007938966155052 ,1515.0001049041748, 0, 0, 180
-1207.3876857757568 ,-25.123488157987595 ,1522.0000743865967, 0, 0, 180
-1198.5960006713867 ,-25.189513340592384 ,1526.0000228881836, 0, 0, 180
-1188.9638900756836 ,-25.239035487174988 ,1529.0000438690186, 0, 0, 180
-1176.9754886627197 ,-25.239035487174988 ,1529.0000438690186, 0, 0, 180
-1161.177396774292 ,-25.156501680612564 ,1524.0000486373901, 0, 0, 180
-1147.7200984954834 ,-25.123488157987595 ,1522.0000743865967, 0, 0, 180
-1132.0552825927734 ,-25.04095248878002 ,1517.0000791549683, 0, 0, 180
-1118.68417263031 ,-25.007938966155052 ,1515.0001049041748, 0, 0, 180
-1105.3444147109985 ,-24.974927306175232 ,1513.0001306533813, 0, 0, 180
-1102.8767824172974 ,-25.189513340592384 ,1526.0000228881836, 0, 0, 180
-1094.4862365722656 ,-25.272049009799957 ,1531.000018119812, 0, 0, 180
-1077.5330066680908 ,-25.156501680612564 ,1524.0000486373901, 0, 0, 180
-1060.6894493103027 ,-25.04095248878002 ,1517.0000791549683, 0, 0, 180
-1047.412395477295 ,-25.007938966155052 ,1515.0001049041748, 0, 0, 180
-1030.748963356018 ,-24.89238977432251 ,1508.0000162124634, 0, 0, 180
-1020.276665687561 ,-24.92540515959263 ,1510.0001096725464, 0, 0, 180
-1019.1226005554199 ,-25.189513340592384 ,1526.0000228881836, 0, 0, 180
-1001.2177228927612 ,-25.04095248878002 ,1517.0000791549683, 0, 0, 180
-988.0191087722778 ,-25.007938966155052 ,1515.0001049041748, 0, 0, 180
-981.9392561912537 ,-25.156501680612564 ,1524.0000486373901, 0, 0, 180
-968.717098236084 ,-25.123488157987595 ,1522.0000743865967, 0, 0, 180
-961.184024810791 ,-25.239035487174988 ,1529.0000438690186, 0, 0, 180
-956.0243487358093 ,-25.42061172425747 ,1540.000081062317, 0, 0, 180
-942.72381067276 ,-25.3875982016325 ,1538.0001068115234, 0, 0, 180
-927.639365196228 ,-25.305064395070076 ,1533.000111579895, 0, 0, 180
-916.8140888214111 ,-25.338077917695045 ,1535.0000858306885, 0, 0, 180
-899.4737267494202 ,-25.189513340592384 ,1526.0000228881836, 0, 0, 180
-883.4376931190491 ,-25.07396601140499 ,1519.0000534057617, 0, 0, 180
-869.232714176178 ,-25.007938966155052 ,1515.0001049041748, 0, 0, 180
-847.1676707267761 ,-24.710815399885178 ,1497.0000982284546, 0, 0, 180
-833.197832107544 ,-24.64478649199009 ,1493.0000305175781, 0, 0, 180
-822.5921988487244 ,-24.677801877260208 ,1495.0001239776611, 0, 0, 180
-809.7854852676392 ,-24.64478649199009 ,1493.0000305175781, 0, 0, 180
-792.1993732452393 ,-24.463212117552757 ,1482.0001125335693, 0, 0, 180
-772.6788520812988 ,-24.215608835220337 ,1467.000126838684, 0, 0, 180
-761.176586151123 ,-24.215608835220337 ,1467.000126838684, 0, 0, 180
-757.3396563529968 ,-24.463212117552757 ,1482.0001125335693, 0, 0, 180
-715.1674032211304 ,-24.215608835220337 ,1467.000126838684, 0, 0, 180
-704.6244740486145 ,-24.248622357845306 ,1469.0001010894775, 0, 0, 180
-694.993793964386 ,-24.314649403095245 ,1473.0000495910645, 0, 0, 180
-684.3723654747009 ,-24.347662925720215 ,1475.000023841858, 0, 0, 180
-672.8073358535767 ,-24.347662925720215 ,1475.000023841858, 0, 0, 180
-665.2770638465881 ,-24.496225640177727 ,1484.0000867843628, 0, 0, 180
-660.248339176178 ,-24.743828922510147 ,1499.000072479248, 0, 0, 180
-649.3603587150574 ,-24.776842445135117 ,1501.0000467300415, 0, 0, 180
-635.892391204834 ,-24.710815399885178 ,1497.0000982284546, 0, 0, 180
-623.3210563659668 ,-24.677801877260208 ,1495.0001239776611, 0, 0, 180
-609.5537543296814 ,-24.595268070697784 ,1490.0001287460327, 0, 0, 180
-597.0686078071594 ,-24.562252685427666 ,1488.0000352859497, 0, 0, 180
-582.2542905807495 ,-24.43019673228264 ,1480.0000190734863, 0, 0, 180
-566.4088129997253 ,-24.248622357845306 ,1469.0001010894775, 0, 0, 180
-553.3798336982727 ,-24.182593449950218 ,1465.000033378601, 0, 0, 180
-547.4416613578796 ,-24.43019673228264 ,1480.0000190734863, 0, 0, 180
-538.7338399887085 ,-24.562252685427666 ,1488.0000352859497, 0, 0, 180
-524.2332220077515 ,-24.43019673228264 ,1480.0000190734863, 0, 0, 180
-509.51164960861206 ,-24.281635880470276 ,1471.000075340271, 0, 0, 180
-500.0091791152954 ,-24.380678310990334 ,1477.000117301941, 0, 0, 180
-491.4046823978424 ,-24.529239162802696 ,1486.0000610351562, 0, 0, 180
-478.4620404243469 ,-24.463212117552757 ,1482.0001125335693, 0, 0, 180
-464.00707960128784 ,-24.314649403095245 ,1473.0000495910645, 0, 0, 180
-449.3860602378845 ,-24.14957992732525 ,1463.0000591278076, 0, 0, 180
-435.8198642730713 ,-24.034032598137856 ,1456.0000896453857, 0, 0, 180
-427.6101589202881 ,-24.215608835220337 ,1467.000126838684, 0, 0, 180
-418.9443290233612 ,-24.380678310990334 ,1477.000117301941, 0, 0, 180
-409.84582901000977 ,-24.529239162802696 ,1486.0000610351562, 0, 0, 180
-396.5867757797241 ,-24.43019673228264 ,1480.0000190734863, 0, 0, 180
-380.0402581691742 ,-24.11656826734543 ,1461.0000848770142, 0, 0, 180
-363.2870614528656 ,-23.76992255449295 ,1440.000057220459, 0, 0, 180
-354.4408977031708 ,-23.934990167617798 ,1450.0000476837158, 0, 0, 180
-348.9869236946106 ,-24.347662925720215 ,1475.000023841858, 0, 0, 180
-339.023232460022 ,-24.463212117552757 ,1482.0001125335693, 0, 0, 180
-324.08955693244934 ,-24.215608835220337 ,1467.000126838684, 0, 0, 180
-310.66954135894775 ,-24.067046120762825 ,1458.0000638961792, 0, 0, 180
-297.18542098999023 ,-23.901978507637978 ,1448.0000734329224, 0, 0, 180
-285.04252433776855 ,-23.83595146238804 ,1444.0001249313354, 0, 0, 180
-273.34144711494446 ,-23.80293607711792 ,1442.0000314712524, 0, 0, 180
-264.94261622428894 ,-24.067046120762825 ,1458.0000638961792, 0, 0, 180
-255.42354583740234 ,-24.248622357845306 ,1469.0001010894775, 0, 0, 180
-244.23764646053314 ,-24.281635880470276 ,1471.000075340271, 0, 0, 180
-232.70398378372192 ,-24.281635880470276 ,1471.000075340271, 0, 0, 180
-221.7717319726944 ,-24.347662925720215 ,1475.000023841858, 0, 0, 180
-207.49899744987488 ,-24.034032598137856 ,1456.0000896453857, 0, 0, 180
-193.38950514793396 ,-23.70389550924301 ,1436.000108718872, 0, 0, 180
-181.11561238765717 ,-23.571839556097984 ,1428.0000925064087, 0, 0, 180
-171.58497869968414 ,-23.80293607711792 ,1442.0000314712524, 0, 0, 180
-161.83482110500336 ,-24.034032598137856 ,1456.0000896453857, 0, 0, 180
-150.41877329349518 ,-24.034032598137856 ,1456.0000896453857, 0, 0, 180
-137.8571093082428 ,-23.83595146238804 ,1444.0001249313354, 0, 0, 180
-127.0609200000763 ,-23.934990167617798 ,1450.0000476837158, 0, 0, 180
-116.17063730955124 ,-24.034032598137856 ,1456.0000896453857, 0, 0, 180
-105.40211945772171 ,-24.182593449950218 ,1465.000033378601, 0, 0, 180
-93.65908056497574 ,-24.11656826734543 ,1461.0000848770142, 0, 0, 180
-82.20384269952774 ,-24.11656826734543 ,1461.0000848770142, 0, 0, 180
-71.23284041881561 ,-24.281635880470276 ,1471.000075340271, 0, 0, 180
-59.78035181760788 ,-24.314649403095245 ,1473.0000495910645, 0, 0, 180
-48.23102056980133 ,-24.314649403095245 ,1473.0000495910645, 0, 0, 180
-50.26639252901077,-12.695983983576298,1465.000033378601, 0,  0, 180
-61.12071871757507,-12.565990909934044,1450.0000476837158, 0,  0, 180
-71.98978960514069,-12.479329481720924,1440.000057220459, 0,  0, 180
-83.16471427679062,-12.46199756860733,1438.0000829696655, 0,  0, 180
-95.09636461734772,-12.54865899682045,1448.0000734329224, 0,  0, 180
-107.03781247138977,-12.617988511919975,1456.0000896453857, 0,  0, 180
-117.31486767530441,-12.496661394834518,1442.0000314712524, 0,  0, 180
-128.08597087860107,-12.444664724171162,1436.000108718872, 0,  0, 180
-140.12150466442108,-12.513994239270687,1444.0001249313354, 0,  0, 180
-152.9117226600647,-12.635321356356144,1458.0000638961792, 0,  0, 180
-163.4417176246643,-12.565990909934044,1450.0000476837158, 0,  0, 180
-174.08736050128937,-12.513994239270687,1444.0001249313354, 0,  0, 180
-185.15250086784363,-12.496661394834518,1442.0000314712524, 0,  0, 180
-198.09368252754211,-12.600656598806381,1454.0001153945923, 0,  0, 180
-221.95784747600555,-12.66132015734911,1461.0000848770142, 0,  0, 180
-231.65570199489594,-12.565990909934044,1450.0000476837158, 0,  0, 180
-244.86835300922394,-12.66132015734911,1461.0000848770142, 0,  0, 180
-256.32357597351074,-12.66132015734911,1461.0000848770142, 0,  0, 180
-265.02957940101624,-12.531327083706856,1446.000099182129, 0,  0, 180
-274.07369017601013,-12.427331879734993,1434.000015258789, 0,  0, 180
-285.7151925563812,-12.444664724171162,1436.000108718872, 0,  0, 180
-300.283282995224,-12.583323754370213,1452.0000219345093, 0,  0, 180
-313.5998249053955,-12.66132015734911,1461.0000848770142, 0,  0, 180
-325.5000412464142,-12.678652070462704,1463.0000591278076, 0,  0, 180
-337.8922939300537,-12.713317759335041,1467.000126838684, 0,  0, 180
-349.8709201812744,-12.730649672448635,1469.0001010894775, 0,  0, 180
-360.4048490524292,-12.695983983576298,1465.000033378601, 0,  0, 180
-368.59139800071716,-12.583323754370213,1452.0000219345093, 0,  0, 180
-383.3780586719513,-12.695983983576298,1465.000033378601, 0,  0, 180
-400.5248248577118,-12.877974659204483,1486.0000610351562, 0,  0, 180
-414.67246413230896,-12.95597106218338,1495.0001239776611, 0,  0, 180
-422.11607098579407,-12.825977057218552,1480.0000190734863, 0,  0, 180
-431.6689372062683,-12.765313498675823,1473.0000495910645, 0,  0, 180
-442.0146942138672,-12.730649672448635,1469.0001010894775, 0,  0, 180
-454.15014028549194,-12.74798158556223,1471.000075340271, 0,  0, 180
-466.31693840026855,-12.765313498675823,1473.0000495910645, 0,  0, 180
-479.1639447212219,-12.79997918754816,1477.000117301941, 0,  0, 180
-491.7413890361786,-12.825977057218552,1480.0000190734863, 0,  0, 180
-501.64514780044556,-12.782646343111992,1475.000023841858, 0,  0, 180
-513.210117816925,-12.782646343111992,1475.000023841858, 0,  0, 180
-530.1119089126587,-12.91264034807682,1490.0001287460327, 0,  0, 180
-546.8851923942566,-13.033966533839703,1504.0000677108765, 0,  0, 180
-556.0773611068726,-12.973302975296974,1497.0000982284546, 0,  0, 180
-561.3666772842407,-12.825977057218552,1480.0000190734863, 0,  0, 180
-572.9709267616272,-12.825977057218552,1480.0000190734863, 0,  0, 180
-586.9450569152832,-12.877974659204483,1486.0000610351562, 0,  0, 180
-601.4161109924316,-12.938637286424637,1493.0000305175781, 0,  0, 180
-614.764928817749,-12.973302975296974,1497.0000982284546, 0,  0, 180
-628.1764507293701,-13.007967732846737,1501.0000467300415, 0,  0, 180
-636.5345120429993,-12.938637286424637,1493.0000305175781, 0,  0, 180
-648.2406854629517,-12.938637286424637,1493.0000305175781, 0,  0, 180
-661.7149710655212,-12.973302975296974,1497.0000982284546, 0,  0, 180
-671.6529726982117,-12.938637286424637,1493.0000305175781, 0,  0, 180
-678.3243417739868,-12.84330990165472,1482.0001125335693, 0,  0, 180
-687.6165270805359,-12.79997918754816,1477.000117301941, 0,  0, 180
-699.1972327232361,-12.79997918754816,1477.000117301941, 0,  0, 180
-709.8153829574585,-12.782646343111992,1475.000023841858, 0,  0, 180
-723.8257527351379,-12.825977057218552,1480.0000190734863, 0,  0, 180
-742.8837418556213,-12.95597106218338,1495.0001239776611, 0,  0, 180
-756.6245198249817,-12.990634888410568,1499.000072479248, 0,  0, 180
-758.6383819580078,-12.825977057218552,1480.0000190734863, 0,  0, 180
-765.5587196350098,-12.74798158556223,1471.000075340271, 0,  0, 180
-788.7144088745117,-12.938637286424637,1493.0000305175781, 0,  0, 180
-804.7094941139221,-13.007967732846737,1501.0000467300415, 0,  0, 180
-815.3905272483826,-12.990634888410568,1499.000072479248, 0,  0, 180
-827.1437287330627,-12.990634888410568,1499.000072479248, 0,  0, 180
-840.0161862373352,-13.007967732846737,1501.0000467300415, 0,  0, 180
-851.7850637435913,-13.007967732846737,1501.0000467300415, 0,  0, 180
-862.4032735824585,-12.990634888410568,1499.000072479248, 0,  0, 180
-882.320761680603,-13.1119629368186,1513.0001306533813, 0,  0, 180
-903.6396741867065,-13.250621035695076,1529.0000438690186, 0,  0, 180
-923.4130382537842,-13.363282196223736,1542.0000553131104, 0,  0, 180
-938.5368227958679,-13.406612910330296,1547.0000505447388, 0,  0, 180
-949.4372606277466,-13.389280065894127,1545.0000762939453, 0,  0, 180
-951.593279838562,-13.250621035695076,1529.0000438690186, 0,  0, 180
-949.0870237350464,-13.051298446953297,1506.00004196167, 0,  0, 180
-959.6190452575684,-13.033966533839703,1504.0000677108765, 0,  0, 180
-964.306652545929,-12.938637286424637,1493.0000305175781, 0,  0, 180
-974.0517139434814,-12.91264034807682,1490.0001287460327, 0,  0, 180
-998.9656805992126,-13.085964135825634,1510.0001096725464, 0,  0, 180
-1014.1521692276001,-13.129294849932194,1515.0001049041748, 0,  0, 180
-1018.5810327529907,-13.033966533839703,1504.0000677108765, 0,  0, 180
-1031.7436456680298,-13.051298446953297,1506.00004196167, 0,  0, 180
-1054.6386241912842,-13.189957477152348,1522.0000743865967, 0,  0, 180
-1077.7844190597534,-13.328617438673973,1538.0001068115234, 0,  0, 180
-1096.220850944519,-13.406612910330296,1547.0000505447388, 0,  0, 180
-1108.350396156311,-13.406612910330296,1547.0000505447388, 0,  0, 180
-1119.031310081482,-13.389280065894127,1545.0000762939453, 0,  0, 180
-1123.823881149292,-13.302618637681007,1535.0000858306885, 0,  0, 180
-1126.2396574020386,-13.189957477152348,1522.0000743865967, 0,  0, 180
-1129.199504852295,-13.085964135825634,1510.0001096725464, 0,  0, 180
-1143.3058977127075,-13.1119629368186,1513.0001306533813, 0,  0, 180
-1163.567304611206,-13.207290321588516,1524.0000486373901, 0,  0, 180
-1189.400553703308,-13.363282196223736,1542.0000553131104, 0,  0, 180
-1205.386757850647,-13.406612910330296,1547.0000505447388, 0,  0, 180
-1210.4332447052002,-13.328617438673973,1538.0001068115234, 0,  0, 180
-1209.7744941711426,-13.189957477152348,1522.0000743865967, 0,  0, 180
-1227.3268699645996,-13.250621035695076,1529.0000438690186, 0,  0, 180
-1244.1785335540771,-13.302618637681007,1535.0000858306885, 0,  0, 180
-1252.94029712677,-13.26795294880867,1531.000018119812, 0,  0, 180
-1272.3804712295532,-13.345949351787567,1540.000081062317, 0,  0, 180
-1291.961669921875,-13.42394482344389,1549.0000247955322, 0,  0, 180
-1304.1069507598877,-13.42394482344389,1549.0000247955322, 0,  0, 180
-1314.552664756775,-13.406612910330296,1547.0000505447388, 0,  0, 180
