-332.59472250938416,-216.30917489528656,1444.0001249313354, 0,  0, 180
-343.44032406806946,-216.00957214832306,1442.0000314712524, 0,  0, 180
-357.20670223236084,-217.50755608081818,1452.0000219345093, 0,  0, 180
-371.38375639915466,-219.15534138679504,1463.0000591278076, 0,  0, 180
-382.33131170272827,-218.85575354099274,1461.0000848770142, 0,  0, 180
-400.5264639854431,-216.30917489528656,1444.0001249313354, 0,  0, 180
-414.1300916671753,-217.50755608081818,1452.0000219345093, 0,  0, 180
-428.73838543891907,-219.15534138679504,1463.0000591278076, 0,  0, 180
-442.6164925098419,-220.35373747348785,1471.000075340271, 0,  0, 180
-458.7811827659607,-222.60071337223053,1486.0000610351562, 0,  0, 180
-475.18110275268555,-224.8476892709732,1501.0000467300415, 0,  0, 180
-487.92317509651184,-225.29707849025726,1504.0000677108765, 0,  0, 180
-498.718798160553,-224.8476892709732,1501.0000467300415, 0,  0, 180
-513.5486125946045,-226.19588673114777,1510.0001096725464, 0,  0, 180
-534.0865254402161,-229.94084656238556,1535.0000858306885, 0,  0, 180
-553.9491176605225,-233.2364022731781,1557.0000410079956, 0,  0, 180
-566.1570429801941,-233.2364022731781,1557.0000410079956, 0,  0, 180
-578.3649682998657,-233.2364022731781,1557.0000410079956, 0,  0, 180
-605.3657531738281,-239.078551530838,1596.000075340271, 0,  0, 180
-654.5624732971191,-210.6168121099472,1406.000018119812, 0,  0, 180
-660.8526110649109,-209.1188281774521,1396.0000276565552, 0,  0, 180
-671.7981696128845,-209.1188281774521,1396.0000276565552, 0,  0, 180
-726.9825339317322,-219.15534138679504,1463.0000591278076, 0,  0, 180
-751.0722279548645,-222.90030121803284,1488.0000352859497, 0,  0, 180
-763.7643814086914,-223.19991886615753,1490.0001287460327, 0,  0, 180
-783.7738990783691,-225.59668123722076,1506.00004196167, 0,  0, 180
-801.3930320739746,-227.24446654319763,1517.0000791549683, 0,  0, 180
-801.4928698539734,-223.9489108324051,1495.0001239776611, 0,  0, 180
-802.3355007171631,-220.95291316509247,1475.000023841858, 0,  0, 180
-812.796950340271,-220.65332531929016,1473.0000495910645, 0,  0, 180
-835.5390429496765,-223.6492931842804,1493.0000305175781, 0,  0, 180
-868.8094019889832,-229.34164106845856,1531.000018119812, 0,  0, 180
-888.867974281311,-231.43883049488068,1545.0000762939453, 0,  0, 180
-896.8997597694397,-230.39023578166962,1538.0001068115234, 0,  0, 180
-885.9096765518188,-224.5480865240097,1499.000072479248, 0,  0, 180
-891.075611114502,-222.90030121803284,1488.0000352859497, 0,  0, 180
-906.9893956184387,-223.9489108324051,1495.0001239776611, 0,  0, 180
-931.001603603363,-226.94487869739532,1515.0001049041748, 0,  0, 180
-954.0827870368958,-229.64124381542206,1533.000111579895, 0,  0, 180
-967.3629403114319,-229.94084656238556,1535.0000858306885, 0,  0, 180
-979.3984293937683,-229.94084656238556,1535.0000858306885, 0,  0, 180
-995.9550499916077,-230.98942637443542,1542.0000553131104, 0,  0, 180
-1003.4693479537964,-229.94084656238556,1535.0000858306885, 0,  0, 180
-1004.9197673797607,-227.54405438899994,1519.0000534057617, 0,  0, 180
-1010.8051300048828,-226.19588673114777,1510.0001096725464, 0,  0, 180
-1021.2899446487427,-225.89626908302307,1508.0000162124634, 0,  0, 180
-1033.113718032837,-225.89626908302307,1508.0000162124634, 0,  0, 180
-1043.5516834259033,-225.59668123722076,1506.00004196167, 0,  0, 180
-1056.7612648010254,-225.89626908302307,1508.0000162124634, 0,  0, 180
-1079.9227952957153,-228.2930612564087,1524.0000486373901, 0,  0, 180
-1099.7530221939087,-229.94084656238556,1535.0000858306885, 0,  0, 180
-1125.5499124526978,-232.78701305389404,1554.0000200271606, 0,  0, 180
-1155.3056240081787,-236.38218641281128,1578.0000686645508, 0,  0, 180
-1178.777813911438,-238.62916231155396,1593.000054359436, 0,  0, 180
-1197.2506046295166,-239.82754349708557,1601.0000705718994, 0,  0, 180
-1228.902816772461,-212.71400153636932,1420.0000762939453, 0,  0, 180
-1234.7970008850098,-211.81520819664001,1414.0000343322754, 0,  0, 180
-1244.1215515136719,-211.5156203508377,1412.000060081482, 0,  0, 180
-1264.0820741653442,-213.01360428333282,1422.0000505447388, 0,  0, 180
-1303.9288520812988,-217.80715882778168,1454.0001153945923, 0,  0, 180
-1330.7077884674072,-220.35373747348785,1471.000075340271, 0,  0, 180
-1350.4536151885986,-221.70190513134003,1480.0000190734863, 0,  0, 180
-1367.5798177719116,-222.60071337223053,1486.0000610351562, 0,  0, 180
-1382.9436302185059,-223.19991886615753,1490.0001287460327, 0,  0, 180
-1409.6020460128784,-225.59668123722076,1506.00004196167, 0,  0, 180
-1436.5113973617554,-227.9934585094452,1522.0000743865967, 0,  0, 180
-1448.4449625015259,-227.9934585094452,1522.0000743865967, 0,  0, 180
-1455.5809497833252,-227.24446654319763,1517.0000791549683, 0,  0, 180
-1467.4752950668335,-227.24446654319763,1517.0000791549683, 0,  0, 180
-1493.0223226547241,-229.34164106845856,1531.000018119812, 0,  0, 180
-1518.7889337539673,-231.43883049488068,1545.0000762939453, 0,  0, 180
-1530.9027433395386,-231.43883049488068,1545.0000762939453, 0,  0, 180
-1518.5869932174683 ,-217.90540218353271 ,1535.0000858306885, 0, 0, 180
-1506.5515041351318 ,-217.90540218353271 ,1535.0000858306885, 0, 0, 180
-1485.7532978057861 ,-216.62777662277222 ,1526.0000228881836, 0, 0, 180
-1467.0279026031494 ,-215.6340777873993 ,1519.0000534057617, 0, 0, 180
-1459.9076509475708 ,-216.34386479854584 ,1524.0000486373901, 0, 0, 180
-1446.0582733154297 ,-216.05995297431946 ,1522.0000743865967, 0, 0, 180
-1420.9330081939697 ,-214.07252550125122 ,1508.0000162124634, 0, 0, 180
-1400.699496269226 ,-212.79491484165192 ,1499.000072479248, 0, 0, 180
-1385.2399587631226 ,-212.22709119319916 ,1495.0001239776611, 0, 0, 180
-1365.249514579773 ,-210.94946563243866 ,1486.0000610351562, 0, 0, 180
-1359.9745035171509 ,-211.94316446781158 ,1493.0000305175781, 0, 0, 180
-1351.880669593811 ,-212.51100301742554 ,1497.0000982284546, 0, 0, 180
-1309.7056150436401 ,-207.68442749977112 ,1463.0000591278076, 0, 0, 180
-1261.8522644042969 ,-201.86415314674377 ,1422.0000505447388, 0, 0, 180
-1240.1483058929443 ,-200.1606673002243 ,1410.0000858306885, 0, 0, 180
-1225.606083869934 ,-199.59282875061035 ,1406.000018119812, 0, 0, 180
-1216.309905052185 ,-199.87675547599792 ,1408.000111579895, 0, 0, 180
-1214.586615562439 ,-203.28372716903687 ,1432.0000410079956, 0, 0, 180
-1228.4431457519531 ,-222.0221906900406 ,1564.000129699707, 0, 0, 180
-1248.8398551940918 ,-227.98441350460052 ,1606.0000658035278, 0, 0, 180
-1192.2111511230469 ,-224.4354635477066 ,1581.0000896453857, 0, 0, 180
-1152.9501676559448 ,-219.3249762058258 ,1545.0000762939453, 0, 0, 180
-1140.8363580703735 ,-219.3249762058258 ,1545.0000762939453, 0, 0, 180
-1123.6084699630737 ,-218.33127737045288 ,1538.0001068115234, 0, 0, 180
-1114.4404411315918 ,-218.89910101890564 ,1542.0000553131104, 0, 0, 180
-1095.9161520004272 ,-217.62149035930634 ,1533.000111579895, 0, 0, 180
-1071.1696147918701 ,-215.06625413894653 ,1515.0001049041748, 0, 0, 180
-1059.2910051345825 ,-215.06625413894653 ,1515.0001049041748, 0, 0, 180
-1053.634524345398 ,-216.34386479854584 ,1524.0000486373901, 0, 0, 180
-1035.5336666107178 ,-215.06625413894653 ,1515.0001049041748, 0, 0, 180
-1020.276665687561 ,-214.3564522266388 ,1510.0001096725464, 0, 0, 180
-1008.4372758865356 ,-214.3564522266388 ,1510.0001096725464, 0, 0, 180
-1001.2177228927612 ,-215.3501659631729 ,1517.0000791549683, 0, 0, 180
-998.4535574913025 ,-217.33756363391876 ,1531.000018119812, 0, 0, 180
-985.1608872413635 ,-217.05365180969238 ,1529.0000438690186, 0, 0, 180
-969.990074634552 ,-216.34386479854584 ,1524.0000486373901, 0, 0, 180
-959.2980742454529 ,-216.62777662277222 ,1526.0000228881836, 0, 0, 180
-956.0243487358093 ,-218.61518919467926 ,1540.000081062317, 0, 0, 180
-935.3682994842529 ,-216.62777662277222 ,1526.0000228881836, 0, 0, 180
-913.7217402458191 ,-214.3564522266388 ,1510.0001096725464, 0, 0, 180
-901.8822908401489 ,-214.3564522266388 ,1510.0001096725464, 0, 0, 180
-901.2420177459717 ,-217.05365180969238 ,1529.0000438690186, 0, 0, 180
-898.5590934753418 ,-219.3249762058258 ,1545.0000762939453, 0, 0, 180
-887.5926733016968 ,-219.60888803005219 ,1547.0000505447388, 0, 0, 180
-867.5404191017151 ,-217.62149035930634 ,1533.000111579895, 0, 0, 180
-842.6850438117981 ,-214.3564522266388 ,1510.0001096725464, 0, 0, 180
-825.8935213088989 ,-213.0788266658783 ,1501.0000467300415, 0, 0, 180
-813.0398392677307 ,-212.79491484165192 ,1499.000072479248, 0, 0, 180
-810.9084963798523 ,-215.3501659631729 ,1517.0000791549683, 0, 0, 180
-802.7011156082153 ,-216.34386479854584 ,1524.0000486373901, 0, 0, 180
-790.7518744468689 ,-216.34386479854584 ,1524.0000486373901, 0, 0, 180
-774.2034792900085 ,-215.06625413894653 ,1515.0001049041748, 0, 0, 180
-755.2801966667175 ,-213.0788266658783 ,1501.0000467300415, 0, 0, 180
-727.6604175567627 ,-208.53617787361145 ,1469.0001010894775, 0, 0, 180
-694.2047476768494 ,-202.14806497097015 ,1424.0000247955322, 0, 0, 180
-667.2107577323914 ,-197.46345281600952 ,1391.0000324249268, 0, 0, 180
-650.6425142288208 ,-195.75996696949005 ,1379.0000677108765, 0, 0, 180
-638.4382247924805 ,-195.33409178256989 ,1376.0000467300415, 0, 0, 180
-624.0003108978271 ,-194.19842958450317 ,1368.0000305175781, 0, 0, 180
-583.3740830421448 ,-214.78232741355896 ,1513.0001306533813, 0, 0, 180
-568.1114792823792 ,-213.50470185279846 ,1504.0000677108765, 0, 0, 180
-569.635272026062 ,-218.61518919467926 ,1540.000081062317, 0, 0, 180
-565.1637315750122 ,-221.59631550312042 ,1561.000108718872, 0, 0, 180
-543.7148809432983 ,-217.90540218353271 ,1535.0000858306885, 0, 0, 180
-522.3273634910583 ,-214.07252550125122 ,1508.0000162124634, 0, 0, 180
-508.1338882446289 ,-213.0788266658783 ,1501.0000467300415, 0, 0, 180
-497.3571002483368 ,-213.50470185279846 ,1504.0000677108765, 0, 0, 180
-483.9504659175873 ,-212.79491484165192 ,1499.000072479248, 0, 0, 180
-467.4721956253052 ,-210.66555380821228 ,1484.0000867843628, 0, 0, 180
-451.2290954589844 ,-208.53617787361145 ,1469.0001010894775, 0, 0, 180
-434.62252616882324 ,-206.12289011478424 ,1452.0000219345093, 0, 0, 180
-420.322984457016 ,-204.70331609249115 ,1442.0000314712524, 0, 0, 180
-407.8821539878845 ,-204.1354775428772 ,1438.0000829696655, 0, 0, 180
-393.8491642475128 ,-202.7159035205841 ,1428.0000925064087, 0, 0, 180
-383.1885755062103 ,-202.9998153448105 ,1430.0000667572021, 0, 0, 180
-374.05744194984436 ,-204.1354775428772 ,1438.0000829696655, 0, 0, 180
-364.29622769355774 ,-204.98724281787872 ,1444.0001249313354, 0, 0, 180
-353.46314311027527 ,-205.2711546421051 ,1446.000099182129, 0, 0, 180
-339.7594690322876 ,-203.85156571865082 ,1436.000108718872, 0, 0, 180
-329.41529154777527 ,-204.41940426826477 ,1440.000057220459, 0, 0, 180
-321.6594159603119 ,-206.6907286643982 ,1456.0000896453857, 0, 0, 180
-312.5872611999512 ,-208.25226604938507 ,1467.000126838684, 0, 0, 180
-299.85350370407104 ,-207.40051567554474 ,1461.0000848770142, 0, 0, 180
-286.22689843177795 ,-205.83897829055786 ,1450.0000476837158, 0, 0, 180
-273.72056245803833 ,-204.98724281787872 ,1444.0001249313354, 0, 0, 180
-262.03516125679016 ,-204.70331609249115 ,1442.0000314712524, 0, 0, 180
-253.1631588935852 ,-206.6907286643982 ,1456.0000896453857, 0, 0, 180
-244.23764646053314 ,-208.82008969783783 ,1471.000075340271, 0, 0, 180
-232.38760232925415 ,-208.53617787361145 ,1469.0001010894775, 0, 0, 180
-220.26818990707397 ,-207.9683393239975 ,1465.000033378601, 0, 0, 180
-210.49177646636963 ,-209.67185497283936 ,1477.000117301941, 0, 0, 180
-198.91107082366943 ,-209.67185497283936 ,1477.000117301941, 0, 0, 180
-185.55471301078796 ,-207.68442749977112 ,1463.0000591278076, 0, 0, 180
-174.08378422260284 ,-207.68442749977112 ,1463.0000591278076, 0, 0, 180
-163.27977180480957 ,-208.53617787361145 ,1469.0001010894775, 0, 0, 180
-150.0055193901062 ,-206.12289011478424 ,1452.0000219345093, 0, 0, 180
-138.4299099445343 ,-205.83897829055786 ,1450.0000476837158, 0, 0, 180
-127.76194512844086 ,-206.97464048862457 ,1458.0000638961792, 0, 0, 180
-116.33021384477615 ,-206.97464048862457 ,1458.0000638961792, 0, 0, 180
-104.89849001169205 ,-206.97464048862457 ,1458.0000638961792, 0, 0, 180
-93.65908056497574 ,-207.40051567554474 ,1461.0000848770142, 0, 0, 180
-82.42889493703842 ,-207.9683393239975 ,1465.000033378601, 0, 0, 180
-70.60331851243973 ,-206.97464048862457 ,1458.0000638961792, 0, 0, 180
-59.17159095406532 ,-206.97464048862457 ,1458.0000638961792, 0, 0, 180
-47.83810302615166 ,-207.40051567554474 ,1461.0000848770142, 0, 0, 180
-36.68168559670448 ,-209.1040015220642 ,1473.0000495910645, 0, 0, 180
-38.382720202207565,-194.46997344493866,1450.0000476837158, 0,  0, 180
-48.79099503159523,-190.71468710899353,1422.0000505447388, 0,  0, 180
-60.44628098607063,-192.32408702373505,1434.000015258789, 0,  0, 180
-72.68969714641571,-195.00644505023956,1454.0001153945923, 0,  0, 180
-84.72622185945511,-196.48171961307526,1465.000033378601, 0,  0, 180
-96.34418040513992,-196.7499703168869,1467.000126838684, 0,  0, 180
-107.40538686513901,-195.94526290893555,1461.0000848770142, 0,  0, 180
-118.61655861139297,-195.54291665554047,1458.0000638961792, 0,  0, 180
-129.3347179889679,-194.46997344493866,1450.0000476837158, 0,  0, 180
-139.92741703987122,-193.39703023433685,1442.0000314712524, 0,  0, 180
-152.0727127790451,-194.46997344493866,1450.0000476837158, 0,  0, 180
-162.53995895385742,-193.39703023433685,1442.0000314712524, 0,  0, 180
-170.2294647693634,-189.37352299690247,1412.000060081482, 0,  0, 180
-183.6117058992386,-191.78763031959534,1430.0000667572021, 0,  0, 180
-198.63863289356232,-195.54291665554047,1458.0000638961792, 0,  0, 180
-210.50260961055756,-195.94526290893555,1461.0000848770142, 0,  0, 180
-220.5905318260193,-194.73819434642792,1452.0000219345093, 0,  0, 180
-232.93380439281464,-195.54291665554047,1458.0000638961792, 0,  0, 180
-245.53875625133514,-196.48171961307526,1465.000033378601, 0,  0, 180
-258.4289014339447,-197.55466282367706,1473.0000495910645, 0,  0, 180
-269.97825503349304,-197.55466282367706,1473.0000495910645, 0,  0, 180
-277.5139510631561,-194.73819434642792,1452.0000219345093, 0,  0, 180
-287.30693459510803,-193.6652809381485,1444.0001249313354, 0,  0, 180
-300.6969392299652,-195.00644505023956,1454.0001153945923, 0,  0, 180
-312.9558861255646,-195.54291665554047,1458.0000638961792, 0,  0, 180
-321.717768907547,-193.93350183963776,1446.000099182129, 0,  0, 180
-328.9094567298889,-191.51939451694489,1428.0000925064087, 0,  0, 180
-342.9639935493469,-193.1287944316864,1440.000057220459, 0,  0, 180
-358.682781457901,-195.54291665554047,1458.0000638961792, 0,  0, 180
-366.56060814857483,-193.6652809381485,1444.0001249313354, 0,  0, 180
-374.7422397136688,-192.0558512210846,1432.0000410079956, 0,  0, 180
-387.04824447631836,-192.5923377275467,1436.000108718872, 0,  0, 180
-401.63594484329224,-194.2017376422882,1448.0000734329224, 0,  0, 180
-415.84140062332153,-195.54291665554047,1458.0000638961792, 0,  0, 180
-426.1009097099304,-195.00644505023956,1454.0001153945923, 0,  0, 180
-441.41292572021484,-196.7499703168869,1467.000126838684, 0,  0, 180
-456.0025632381439,-198.09114933013916,1477.000117301941, 0,  0, 180
-468.5329794883728,-198.49348068237305,1480.0000190734863, 0,  0, 180
-483.38136076927185,-199.8346745967865,1490.0001287460327, 0,  0, 180
-499.7155964374542,-201.71229541301727,1504.0000677108765, 0,  0, 180
-513.5486125946045,-202.51701772212982,1510.0001096725464, 0,  0, 180
-525.3880620002747,-202.51701772212982,1510.0001096725464, 0,  0, 180
-542.2083735466003,-204.3946385383606,1524.0000486373901, 0,  0, 180
-562.5208616256714,-207.4793428182602,1547.0000505447388, 0,  0, 180
-574.6503472328186,-207.4793428182602,1547.0000505447388, 0,  0, 180
-577.2973895072937,-204.12641763687134,1522.0000743865967, 0,  0, 180
-583.8109254837036,-202.24876701831818,1508.0000162124634, 0,  0, 180
-582.6002359390259,-197.82289862632751,1475.000023841858, 0,  0, 180
-617.2953248023987,-197.82289862632751,1475.000023841858, 0,  0, 180
-620.7597255706787,-195.27468085289001,1456.0000896453857, 0,  0, 180
-614.8082613945007,-189.90997970104218,1416.0000085830688, 0,  0, 180
-599.8311638832092,-181.99707567691803,1357.0001125335693, 0,  0, 180
-595.6253409385681,-177.57120728492737,1324.0001201629639, 0,  0, 180
-612.414300441742,-179.44884300231934,1338.0000591278076, 0,  0, 180
-629.4228434562683,-181.3264936208725,1352.000117301941, 0,  0, 180
-648.5444903373718,-183.74060094356537,1370.0001239776611, 0,  0, 180
-677.5729656219482,-188.83705139160156,1408.000111579895, 0,  0, 180
-709.1536521911621,-194.46997344493866,1450.0000476837158, 0,  0, 180
-736.4238500595093,-198.7617313861847,1482.0001125335693, 0,  0, 180
-773.7861275672913,-205.60170710086823,1533.000111579895, 0,  0, 180
-799.13330078125,-209.0887427330017,1559.000015258789, 0,  0, 180
-808.7547421455383,-208.41816067695618,1554.0000200271606, 0,  0, 180
-806.1475157737732,-204.66287434101105,1526.0000228881836, 0,  0, 180
-812.2151494026184,-203.18759977817535,1515.0001049041748, 0,  0, 180
-819.1981911659241,-201.98053121566772,1506.00004196167, 0,  0, 180
-829.902708530426,-201.71229541301727,1504.0000677108765, 0,  0, 180
-840.0161862373352,-201.3099491596222,1501.0000467300415, 0,  0, 180
-850.6500720977783,-201.04171335697174,1499.000072479248, 0,  0, 180
-880.5713057518005,-202.51701772212982,1510.0001096725464, 0,  0, 180
-895.3657150268555,-203.18759977817535,1515.0001049041748, 0,  0, 180
-915.6281352043152,-205.06523549556732,1529.0000438690186, 0,  0, 180
-933.0767393112183,-206.27228915691376,1538.0001068115234, 0,  0, 180
-951.8952965736389,-207.74756371974945,1549.0000247955322, 0,  0, 180
-964.0405178070068,-207.74756371974945,1549.0000247955322, 0,  0, 180
-959.1702818870544,-204.12641763687134,1522.0000743865967, 0,  0, 180
-965.361475944519,-202.9193639755249,1513.0001306533813, 0,  0, 180
-979.80797290802,-203.4558206796646,1517.0000791549683, 0,  0, 180
-994.9709177017212,-204.12641763687134,1522.0000743865967, 0,  0, 180
-1004.9197673797607,-203.72405648231506,1519.0000534057617, 0,  0, 180
-1014.1521692276001,-203.18759977817535,1515.0001049041748, 0,  0, 180
-1028.7396907806396,-203.72405648231506,1519.0000534057617, 0,  0, 180
-1047.5006103515625,-205.06523549556732,1529.0000438690186, 0,  0, 180
-1062.2608661651611,-205.60170710086823,1533.000111579895, 0,  0, 180
-1067.9736137390137,-204.3946385383606,1524.0000486373901, 0,  0, 180
-1086.3003730773926,-205.60170710086823,1533.000111579895, 0,  0, 180
-1116.9477701187134,-209.0887427330017,1559.000015258789, 0,  0, 180
-1130.620002746582,-209.35699343681335,1561.000108718872, 0,  0, 180
-1131.1452388763428,-207.21110701560974,1545.0000762939453, 0,  0, 180
-1134.3793869018555,-205.60170710086823,1533.000111579895, 0,  0, 180
-1147.8948593139648,-205.86994290351868,1535.0000858306885, 0,  0, 180
-1226.1738777160645,-215.39226174354553,1606.0000658035278, 0,  0, 180
-1199.380874633789,-192.86057353019714,1438.0000829696655, 0,  0, 180
-1214.0233516693115,-193.39703023433685,1442.0000314712524, 0,  0, 180
-1213.4332656860352,-191.51939451694489,1428.0000925064087, 0,  0, 180
-1192.8991079330444,-186.55705451965332,1391.0000324249268, 0,  0, 180
-1208.1326246261597,-187.22763657569885,1396.0000276565552, 0,  0, 180
-1243.5296773910522,-190.98292291164398,1424.0000247955322, 0,  0, 180
-1258.2193613052368,-191.51939451694489,1428.0000925064087, 0,  0, 180
-1285.416841506958,-193.93350183963776,1446.000099182129, 0,  0, 180
-1330.8323621749878,-199.02996718883514,1484.0000867843628, 0,  0, 180
-1360.5605363845825,-201.71229541301727,1504.0000677108765, 0,  0, 180
-1374.1778135299683,-201.98053121566772,1506.00004196167, 0,  0, 180
-1397.9499340057373,-203.72405648231506,1519.0000534057617, 0,  0, 180
-1416.356921195984,-204.66287434101105,1526.0000228881836, 0,  0, 180
-1431.129813194275,-205.06523549556732,1529.0000438690186, 0,  0, 180
-1446.893572807312,-205.60170710086823,1533.000111579895, 0,  0, 180
-1474.1400480270386,-207.74756371974945,1549.0000247955322, 0,  0, 180
-1486.2853288650513,-207.74756371974945,1549.0000247955322, 0,  0, 180
-1487.7897500991821,-206.27228915691376,1538.0001068115234, 0,  0, 180
-1496.9230890274048,-205.86994290351868,1535.0000858306885, 0,  0, 180
-1513.8736963272095,-206.5405249595642,1540.000081062317, 0,  0, 180
-1503.1583309173584,-203.4558206796646,1517.0000791549683, 0,  0, 180
-1477.0359992980957 ,-188.5308474302292 ,1493.0000305175781, 0, 0, 180
-1465.329885482788 ,-188.5308474302292 ,1493.0000305175781, 0, 0, 180
-1488.674283027649 ,-193.07680428028107 ,1529.0000438690186, 0, 0, 180
-1496.0014820098877 ,-195.60234248638153 ,1549.0000247955322, 0, 0, 180
-1488.6460304260254 ,-196.23371958732605 ,1554.0000200271606, 0, 0, 180
-1474.561333656311 ,-195.98117470741272 ,1552.0000457763672, 0, 0, 180
-1451.0854482650757 ,-194.46586072444916 ,1540.000081062317, 0, 0, 180
-1439.0108585357666 ,-194.46586072444916 ,1540.000081062317, 0, 0, 180
-1426.936149597168 ,-194.46586072444916 ,1540.000081062317, 0, 0, 180
-1400.161623954773 ,-192.44542717933655 ,1524.0000486373901, 0, 0, 180
-1365.440011024475 ,-189.28851187229156 ,1499.000072479248, 0, 0, 180
-1348.2683897018433 ,-188.5308474302292 ,1493.0000305175781, 0, 0, 180
-1332.0860862731934 ,-187.89947032928467 ,1488.0000352859497, 0, 0, 180
-1300.0094890594482 ,-184.9951148033142 ,1465.000033378601, 0, 0, 180
-1280.6071043014526 ,-183.85863304138184 ,1456.0000896453857, 0, 0, 180
-1250.0135898590088 ,-181.08053505420685 ,1434.000015258789, 0, 0, 180
-1214.582085609436 ,-177.54478752613068 ,1406.000018119812, 0, 0, 180
-1194.1419839859009 ,-176.15576088428497 ,1395.0001001358032, 0, 0, 180
-1209.4976902008057 ,-180.07034063339233 ,1426.0001182556152, 0, 0, 180
-1223.5268354415894 ,-183.85863304138184 ,1456.0000896453857, 0, 0, 180
-1227.9280424118042 ,-186.25786900520325 ,1475.000023841858, 0, 0, 180
-1200.7976770401 ,-199.01181757450104 ,1576.0000944137573, 0, 0, 180
-1145.4577445983887 ,-191.81405007839203 ,1519.0000534057617, 0, 0, 180
-1130.5627822875977 ,-191.30894541740417 ,1515.0001049041748, 0, 0, 180
-1123.8529682159424 ,-192.19288229942322 ,1522.0000743865967, 0, 0, 180
-1126.5307664871216 ,-194.7184056043625 ,1542.0000553131104, 0, 0, 180
-1119.4994449615479 ,-195.60234248638153 ,1549.0000247955322, 0, 0, 180
-1102.3499965667725 ,-194.7184056043625 ,1542.0000553131104, 0, 0, 180
-1071.1696147918701 ,-191.30894541740417 ,1515.0001049041748, 0, 0, 180
-1045.3070402145386 ,-188.7834221124649 ,1495.0001239776611, 0, 0, 180
-1033.5851907730103 ,-188.7834221124649 ,1495.0001239776611, 0, 0, 180
-1028.0150175094604 ,-189.91990387439728 ,1504.0000677108765, 0, 0, 180
-1018.9251899719238 ,-190.42499363422394 ,1508.0000162124634, 0, 0, 180
-1008.4372758865356 ,-190.67756831645966 ,1510.0001096725464, 0, 0, 180
-998.5777735710144 ,-191.05640053749084 ,1513.0001306533813, 0, 0, 180
-984.7583174705505 ,-190.67756831645966 ,1510.0001096725464, 0, 0, 180
-976.1404395103455 ,-191.30894541740417 ,1515.0001049041748, 0, 0, 180
-966.8076634407043 ,-191.81405007839203 ,1519.0000534057617, 0, 0, 180
-962.4412655830383 ,-193.3293640613556 ,1531.000018119812, 0, 0, 180
-960.369884967804 ,-195.349782705307 ,1547.0000505447388, 0, 0, 180
-951.3051509857178 ,-195.98117470741272 ,1552.0000457763672, 0, 0, 180
-931.8751096725464 ,-194.46586072444916 ,1540.000081062317, 0, 0, 180
-914.4249558448792 ,-193.3293640613556 ,1531.000018119812, 0, 0, 180
-892.989993095398 ,-191.30894541740417 ,1515.0001049041748, 0, 0, 180
-870.6426620483398 ,-189.03596699237823 ,1497.0000982284546, 0, 0, 180
-850.2989411354065 ,-187.14182078838348 ,1482.0001125335693, 0, 0, 180
-839.8107886314392 ,-187.3943656682968 ,1484.0000867843628, 0, 0, 180
-836.5462422370911 ,-189.28851187229156 ,1499.000072479248, 0, 0, 180
-838.5487794876099 ,-192.44542717933655 ,1524.0000486373901, 0, 0, 180
-827.6843428611755 ,-192.69797205924988 ,1526.0000228881836, 0, 0, 180
-817.3230886459351 ,-193.07680428028107 ,1529.0000438690186, 0, 0, 180
-810.075044631958 ,-194.21330094337463 ,1538.0001068115234, 0, 0, 180
-808.9122176170349 ,-196.86509668827057 ,1559.000015258789, 0, 0, 180
-795.666515827179 ,-196.61255180835724 ,1557.0000410079956, 0, 0, 180
-766.8534517288208 ,-192.44542717933655 ,1524.0000486373901, 0, 0, 180
-737.0719313621521 ,-187.89947032928467 ,1488.0000352859497, 0, 0, 180
-716.1424160003662 ,-185.50021946430206 ,1469.0001010894775, 0, 0, 180
-689.7549033164978 ,-181.5856546163559 ,1438.0000829696655, 0, 0, 180
-663.3816957473755 ,-177.54478752613068 ,1406.000018119812, 0, 0, 180
-646.3258862495422 ,-175.90320110321045 ,1393.0000066757202, 0, 0, 180
-620.8073496818542 ,-171.86234891414642 ,1361.0000610351562, 0, 0, 180
-607.3932647705078 ,-174.13532733917236 ,1379.0000677108765, 0, 0, 180
-623.8358616828918 ,-182.09074437618256 ,1442.0000314712524, 0, 0, 180
-620.6004023551941 ,-184.49001014232635 ,1461.0000848770142, 0, 0, 180
-597.8711247444153 ,-188.1520301103592 ,1490.0001287460327, 0, 0, 180
-585.687518119812 ,-191.81405007839203 ,1519.0000534057617, 0, 0, 180
-585.1094722747803 ,-195.60234248638153 ,1549.0000247955322, 0, 0, 180
-576.6631960868835 ,-196.86509668827057 ,1559.000015258789, 0, 0, 180
-558.2846999168396 ,-194.7184056043625 ,1542.0000553131104, 0, 0, 180
-537.3390913009644 ,-191.5614902973175 ,1517.0000791549683, 0, 0, 180
-515.3999924659729 ,-187.89947032928467 ,1488.0000352859497, 0, 0, 180
-494.59272623062134 ,-184.49001014232635 ,1461.0000848770142, 0, 0, 180
-474.8702347278595 ,-181.33309483528137 ,1436.000108718872, 0, 0, 180
-466.1937952041626 ,-182.34331905841827 ,1444.0001249313354, 0, 0, 180
-460.22698283195496 ,-184.49001014232635 ,1461.0000848770142, 0, 0, 180
-454.60790395736694 ,-186.88926100730896 ,1480.0000190734863, 0, 0, 180
-445.3983008861542 ,-187.89947032928467 ,1488.0000352859497, 0, 0, 180
-433.1483840942383 ,-187.64692544937134 ,1486.0000610351562, 0, 0, 180
-419.7952151298523 ,-186.88926100730896 ,1480.0000190734863, 0, 0, 180
-404.60556745529175 ,-185.24767458438873 ,1467.000126838684, 0, 0, 180
-393.6392068862915 ,-185.50021946430206 ,1469.0001010894775, 0, 0, 180
-380.0402581691742 ,-184.49001014232635 ,1461.0000848770142, 0, 0, 180
-370.09871006011963 ,-185.24767458438873 ,1467.000126838684, 0, 0, 180
-358.1075072288513 ,-184.9951148033142 ,1465.000033378601, 0, 0, 180
-342.59867668151855 ,-182.84840881824493 ,1448.0000734329224, 0, 0, 180
-328.95776629447937 ,-181.5856546163559 ,1438.0000829696655, 0, 0, 180
-317.6828622817993 ,-181.5856546163559 ,1438.0000829696655, 0, 0, 180
-305.5556118488312 ,-181.08053505420685 ,1434.000015258789, 0, 0, 180
-295.1330244541168 ,-181.5856546163559 ,1438.0000829696655, 0, 0, 180
-285.04252433776855 ,-182.34331905841827 ,1444.0001249313354, 0, 0, 180
-274.85790848731995 ,-183.10096859931946 ,1450.0000476837158, 0, 0, 180
-265.8511996269226 ,-184.74255502223969 ,1463.0000591278076, 0, 0, 180
-254.38028573989868 ,-184.74255502223969 ,1463.0000591278076, 0, 0, 180
-241.08296632766724 ,-183.3535134792328 ,1452.0000219345093, 0, 0, 180
-228.11634838581085 ,-182.09074437618256 ,1442.0000314712524, 0, 0, 180
-217.1107828617096 ,-182.34331905841827 ,1444.0001249313354, 0, 0, 180
-205.21877706050873 ,-181.83819949626923 ,1440.000057220459, 0, 0, 180
-190.96539914608002 ,-179.06011641025543 ,1418.0001020431519, 0, 0, 180
-174.5203584432602 ,-173.75649511814117 ,1376.0000467300415, 0, 0, 180
-162.54167258739471 ,-172.49374091625214 ,1366.0000562667847, 0, 0, 180
-159.38949584960938 ,-181.08053505420685 ,1434.000015258789, 0, 0, 180
-151.1419266462326 ,-184.74255502223969 ,1463.0000591278076, 0, 0, 180
-139.002725481987 ,-183.85863304138184 ,1456.0000896453857, 0, 0, 180
-127.76194512844086 ,-184.11117792129517 ,1458.0000638961792, 0, 0, 180
-116.33021384477615 ,-184.11117792129517 ,1458.0000638961792, 0, 0, 180
-104.75460439920425 ,-183.85863304138184 ,1456.0000896453857, 0, 0, 180
-93.7872901558876 ,-184.74255502223969 ,1463.0000591278076, 0, 0, 180
-82.31636881828308 ,-184.74255502223969 ,1463.0000591278076, 0, 0, 180
-70.21591812372208 ,-183.10096859931946 ,1450.0000476837158, 0, 0, 180
-58.27874317765236 ,-181.33309483528137 ,1436.000108718872, 0, 0, 180
-47.47792333364487 ,-183.10096859931946 ,1450.0000476837158, 0, 0, 180
-36.631882190704346 ,-185.7527792453766 ,1471.000075340271, 0, 0, 180
-49.271360039711,-170.07388174533844,1436.000108718872, 0,  0, 180
-60.44628098607063,-169.83699798583984,1434.000015258789, 0,  0, 180
-72.0897763967514,-170.78448832035065,1442.0000314712524, 0,  0, 180
-84.09005403518677,-172.20571637153625,1454.0001153945923, 0,  0, 180
-94.96501833200455,-171.25822603702545,1446.000099182129, 0,  0, 180
-105.56751489639282,-170.07388174533844,1436.000108718872, 0,  0, 180
-117.47758835554123,-171.02135717868805,1444.0001249313354, 0,  0, 180
-128.44274938106537,-170.54761946201324,1440.000057220459, 0,  0, 180
-141.09186828136444,-172.20571637153625,1454.0001153945923, 0,  0, 180
-154.27514910697937,-174.21913146972656,1471.000075340271, 0,  0, 180
-162.99083828926086,-171.25822603702545,1446.000099182129, 0,  0, 180
-168.78275573253632,-165.81018269062042,1400.0000953674316, 0,  0, 180
-180.78692257404327,-166.75767302513123,1408.000111579895, 0,  0, 180
-195.91382145881653,-170.31075060367584,1438.0000829696655, 0,  0, 180
-210.50260961055756,-173.03477227687836,1461.0000848770142, 0,  0, 180
-222.2616821527481,-173.27164113521576,1463.0000591278076, 0,  0, 180
-232.93380439281464,-172.67945408821106,1458.0000638961792, 0,  0, 180
-244.86835300922394,-173.03477227687836,1461.0000848770142, 0,  0, 180
-256.67446851730347,-173.27164113521576,1463.0000591278076, 0,  0, 180
-268.51195096969604,-173.50850999355316,1465.000033378601, 0,  0, 180
-280.76308965682983,-173.98226261138916,1469.0001010894775, 0,  0, 180
-291.8831408023834,-173.74539375305176,1467.000126838684, 0,  0, 180
-299.4560897350311,-171.49509489536285,1448.0000734329224, 0,  0, 180
-309.0922236442566,-170.54761946201324,1440.000057220459, 0,  0, 180
-323.4976530075073,-172.20571637153625,1454.0001153945923, 0,  0, 180
-336.5103006362915,-173.03477227687836,1461.0000848770142, 0,  0, 180
-345.345675945282,-171.73196375370026,1450.0000476837158, 0,  0, 180
-356.7146956920624,-171.73196375370026,1450.0000476837158, 0,  0, 180
-368.0836856365204,-171.73196375370026,1450.0000476837158, 0,  0, 180
-379.9760937690735,-171.96883261203766,1452.0000219345093, 0,  0, 180
-390.8216655254364,-171.73196375370026,1450.0000476837158, 0,  0, 180
-405.24178743362427,-173.03477227687836,1461.0000848770142, 0,  0, 180
-420.69000005722046,-174.69286918640137,1475.000023841858, 0,  0, 180
-432.84115195274353,-174.92975294589996,1477.000117301941, 0,  0, 180
-443.21826100349426,-174.45600032806396,1473.0000495910645, 0,  0, 180
-456.0025632381439,-174.92975294589996,1477.000117301941, 0,  0, 180
-465.05066752433777,-173.98226261138916,1469.0001010894775, 0,  0, 180
-469.7558283805847,-171.49509489536285,1448.0000734329224, 0,  0, 180
-477.12206840515137,-170.07388174533844,1436.000108718872, 0,  0, 180
-493.82284283638,-171.96883261203766,1452.0000219345093, 0,  0, 180
-513.210117816925,-174.69286918640137,1475.000023841858, 0,  0, 180
-529.4002890586853,-176.23253166675568,1488.0000352859497, 0,  0, 180
-551.6122579574585,-179.6671748161316,1517.0000791549683, 0,  0, 180
-566.1067962646484,-180.4962158203125,1524.0000486373901, 0,  0, 180
-569.3320631980896,-177.77219414710999,1501.0000467300415, 0,  0, 180
-576.8423676490784,-176.46941542625427,1490.0001287460327, 0,  0, 180
-594.0547585487366,-178.12751233577728,1504.0000677108765, 0,  0, 180
-609.4726324081421,-179.1934370994568,1513.0001306533813, 0,  0, 180
-609.4262599945068,-175.75879395008087,1484.0000867843628, 0,  0, 180
-613.1102442741394,-173.50850999355316,1465.000033378601, 0,  0, 180
-619.0543174743652,-171.96883261203766,1452.0000219345093, 0,  0, 180
-625.228762626648,-170.54761946201324,1440.000057220459, 0,  0, 180
-633.8672041893005,-169.83699798583984,1434.000015258789, 0,  0, 180
-664.5930409431458,-171.96883261203766,1452.0000219345093, 0,  0, 180
-681.0988187789917,-173.27164113521576,1463.0000591278076, 0,  0, 180
-699.1972327232361,-174.92975294589996,1477.000117301941, 0,  0, 180
-718.4775471687317,-176.82470381259918,1493.0000305175781, 0,  0, 180
-735.5635166168213,-178.12751233577728,1504.0000677108765, 0,  0, 180
-744.8713779449463,-177.53532528877258,1499.000072479248, 0,  0, 180
-759.1482400894165,-178.12751233577728,1504.0000677108765, 0,  0, 180
-775.5540609359741,-179.1934370994568,1513.0001306533813, 0,  0, 180
-788.4578704833984,-179.4303059577942,1515.0001049041748, 0,  0, 180
-804.034411907196,-180.2593469619751,1522.0000743865967, 0,  0, 180
-815.9679770469666,-180.2593469619751,1522.0000743865967, 0,  0, 180
-827.9014825820923,-180.2593469619751,1522.0000743865967, 0,  0, 180
-839.8350477218628,-180.2593469619751,1522.0000743865967, 0,  0, 180
-836.6583585739136,-177.06158757209778,1495.0001239776611, 0,  0, 180
-841.0030007362366,-175.52192509174347,1482.0001125335693, 0,  0, 180
-858.9513897895813,-176.82470381259918,1493.0000305175781, 0,  0, 180
-880.5713057518005,-178.83813381195068,1510.0001096725464, 0,  0, 180
-899.502694606781,-180.2593469619751,1522.0000743865967, 0,  0, 180
-909.6397161483765,-179.904043674469,1519.0000534057617, 0,  0, 180
-920.3363656997681,-179.6671748161316,1517.0000791549683, 0,  0, 180
-932.2305917739868,-179.6671748161316,1517.0000791549683, 0,  0, 180
-942.8802132606506,-179.4303059577942,1515.0001049041748, 0,  0, 180
-957.2796821594238,-179.904043674469,1519.0000534057617, 0,  0, 180
-972.3799228668213,-180.4962158203125,1524.0000486373901, 0,  0, 180
-984.329104423523,-180.4962158203125,1524.0000486373901, 0,  0, 180
-989.0874028205872,-179.1934370994568,1513.0001306533813, 0,  0, 180
-991.6884303092957,-177.53532528877258,1499.000072479248, 0,  0, 180
-1000.764012336731,-177.06158757209778,1495.0001239776611, 0,  0, 180
-1013.8403177261353,-177.29845643043518,1497.0000982284546, 0,  0, 180
-1019.4120407104492,-176.23253166675568,1488.0000352859497, 0,  0, 180
-1026.9213914871216,-175.52192509174347,1482.0001125335693, 0,  0, 180
-1039.9428606033325,-175.75879395008087,1484.0000867843628, 0,  0, 180
-1062.207579612732,-177.53532528877258,1499.000072479248, 0,  0, 180
-1085.4239463806152,-179.4303059577942,1515.0001049041748, 0,  0, 180
-1093.6810970306396,-178.83813381195068,1510.0001096725464, 0,  0, 180
-1094.5385694503784,-177.06158757209778,1495.0001239776611, 0,  0, 180
-1104.7804355621338,-176.82470381259918,1493.0000305175781, 0,  0, 180
-1120.9734678268433,-177.53532528877258,1499.000072479248, 0,  0, 180
-1146.3284492492676,-179.6671748161316,1517.0000791549683, 0,  0, 180
-1186.4721775054932,-184.04929339885712,1554.0000200271606, 0,  0, 180
-1206.3699960708618,-185.23366749286652,1564.000129699707, 0,  0, 180
-1239.6706342697144,-188.43142688274384,1591.0000801086426, 0,  0, 180
-1220.232367515564,-173.27164113521576,1463.0000591278076, 0,  0, 180
-1198.8691091537476,-168.65263879299164,1424.0000247955322, 0,  0, 180
-1211.7338180541992,-168.88952255249023,1426.0001182556152, 0,  0, 180
-1276.501178741455,-174.69286918640137,1475.000023841858, 0,  0, 180
-1354.228138923645,-177.29845643043518,1497.0000982284546, 0,  0, 180
-1382.3901414871216,-179.4303059577942,1515.0001049041748, 0,  0, 180
-1407.1530103683472,-181.0884028673172,1529.0000438690186, 0,  0, 180
-1416.356921195984,-180.7330846786499,1526.0000228881836, 0,  0, 180
-1434.8738193511963,-181.5621554851532,1533.000111579895, 0,  0, 180
-1460.1072072982788,-183.2202523946762,1547.0000505447388, 0,  0, 180
-1463.6718034744263,-182.1543276309967,1538.0001068115234, 0,  0, 180
-1464.2164707183838,-180.7330846786499,1526.0000228881836, 0,  0, 180
-1465.5406475067139,-179.4303059577942,1515.0001049041748, 0,  0, 180
-1436.461091041565,-174.45600032806396,1473.0000495910645, 0,  0, 180
-1438.1800889968872,-173.27164113521576,1463.0000591278076, 0,  0, 180
-1449.6510028839111,-173.27164113521576,1463.0000591278076, 0,  0, 180
-1445.3781843185425 ,-161.57951951026917 ,1461.0000848770142, 0, 0, 180
-1433.9230060577393 ,-161.57951951026917 ,1461.0000848770142, 0, 0, 180
-1428.309440612793 ,-162.2430980205536 ,1467.000126838684, 0, 0, 180
-1439.020276069641 ,-164.78678584098816 ,1490.0001287460327, 0, 0, 180
-1466.6132926940918 ,-169.3211793899536 ,1531.000018119812, 0, 0, 180
-1483.1123352050781 ,-172.63904213905334 ,1561.000108718872, 0, 0, 180
-1470.8729982376099 ,-172.63904213905334 ,1561.000108718872, 0, 0, 180
-1437.142014503479 ,-170.09535431861877 ,1538.0001068115234, 0, 0, 180
-1413.9639139175415 ,-168.76819729804993 ,1526.0000228881836, 0, 0, 180
-1419.4552898406982 ,-170.86951434612274 ,1545.0000762939453, 0, 0, 180
-1398.232340812683 ,-169.76356506347656 ,1535.0000858306885, 0, 0, 180
-1361.814260482788 ,-166.77749156951904 ,1508.0000162124634, 0, 0, 180
-1340.1432037353516 ,-165.56094586849213 ,1497.0000982284546, 0, 0, 180
-1328.4056186676025 ,-165.56094586849213 ,1497.0000982284546, 0, 0, 180
-1320.1862573623657 ,-166.00333154201508 ,1501.0000467300415, 0, 0, 180
-1311.0324144363403 ,-166.3351207971573 ,1504.0000677108765, 0, 0, 180
-1307.0148229599 ,-167.33047366142273 ,1513.0001306533813, 0, 0, 180
-1279.7435522079468 ,-165.33976793289185 ,1495.0001239776611, 0, 0, 180
-1233.2465648651123 ,-160.8053594827652 ,1454.0001153945923, 0, 0, 180
-1221.8462228775024 ,-160.8053594827652 ,1454.0001153945923, 0, 0, 180
-1221.2681770324707 ,-162.2430980205536 ,1467.000126838684, 0, 0, 180
-1223.7850427627563 ,-164.12322223186493 ,1484.0000867843628, 0, 0, 180
-1221.1344242095947 ,-165.33976793289185 ,1495.0001239776611, 0, 0, 180
-1209.7077369689941 ,-166.99868440628052 ,1510.0001096725464, 0, 0, 180
-1205.0079107284546 ,-167.99403727054596 ,1519.0000534057617, 0, 0, 180
-1202.9608488082886 ,-171.09070718288422 ,1547.0000505447388, 0, 0, 180
-1194.6802139282227 ,-171.6436743736267 ,1552.0000457763672, 0, 0, 180
-1184.0351819992065 ,-171.86486721038818 ,1554.0000200271606, 0, 0, 180
-1161.293625831604 ,-170.31654715538025 ,1540.000081062317, 0, 0, 180
-1137.2790336608887 ,-168.54701936244965 ,1524.0000486373901, 0, 0, 180
-1113.5152578353882 ,-166.77749156951904 ,1508.0000162124634, 0, 0, 180
-1092.1941995620728 ,-165.33976793289185 ,1495.0001239776611, 0, 0, 180
-1079.0269374847412 ,-165.11856019496918 ,1493.0000305175781, 0, 0, 180
-1073.0397701263428 ,-166.00333154201508 ,1501.0000467300415, 0, 0, 180
-1064.8062229156494 ,-166.55629873275757 ,1506.00004196167, 0, 0, 180
-1048.1038093566895 ,-165.7821387052536 ,1499.000072479248, 0, 0, 180
-1032.2023630142212 ,-165.11856019496918 ,1493.0000305175781, 0, 0, 180
-1023.2303142547607 ,-165.56094586849213 ,1497.0000982284546, 0, 0, 180
-1011.4928483963013 ,-165.56094586849213 ,1497.0000982284546, 0, 0, 180
-998.4196424484253 ,-165.33976793289185 ,1495.0001239776611, 0, 0, 180
-988.0177974700928 ,-165.56094586849213 ,1497.0000982284546, 0, 0, 180
-984.7583174705505 ,-166.99868440628052 ,1510.0001096725464, 0, 0, 180
-970.3415632247925 ,-166.55629873275757 ,1506.00004196167, 0, 0, 180
-952.80522108078 ,-165.56094586849213 ,1497.0000982284546, 0, 0, 180
-934.1527223587036 ,-164.3444001674652 ,1486.0000610351562, 0, 0, 180
-918.7766313552856 ,-163.6808216571808 ,1480.0000190734863, 0, 0, 180
-910.8501672744751 ,-164.3444001674652 ,1486.0000610351562, 0, 0, 180
-903.4347534179688 ,-165.11856019496918 ,1493.0000305175781, 0, 0, 180
-899.493157863617 ,-166.55629873275757 ,1506.00004196167, 0, 0, 180
-894.1688537597656 ,-167.77285933494568 ,1517.0000791549683, 0, 0, 180
-881.1113238334656 ,-167.5516664981842 ,1515.0001049041748, 0, 0, 180
-865.2163743972778 ,-166.77749156951904 ,1508.0000162124634, 0, 0, 180
-853.3926010131836 ,-166.77749156951904 ,1508.0000162124634, 0, 0, 180
-851.6141176223755 ,-168.76819729804993 ,1526.0000228881836, 0, 0, 180
-839.6492004394531 ,-168.76819729804993 ,1526.0000228881836, 0, 0, 180
-822.8028416633606 ,-167.77285933494568 ,1517.0000791549683, 0, 0, 180
-807.1666955947876 ,-166.99868440628052 ,1510.0001096725464, 0, 0, 180
-792.1670079231262 ,-166.3351207971573 ,1504.0000677108765, 0, 0, 180
-773.1105089187622 ,-164.78678584098816 ,1490.0001287460327, 0, 0, 180
-756.3175559043884 ,-163.6808216571808 ,1480.0000190734863, 0, 0, 180
-747.7324604988098 ,-164.3444001674652 ,1486.0000610351562, 0, 0, 180
-743.5113787651062 ,-166.00333154201508 ,1501.0000467300415, 0, 0, 180
-742.9550886154175 ,-168.54701936244965 ,1524.0000486373901, 0, 0, 180
-731.965184211731 ,-168.76819729804993 ,1526.0000228881836, 0, 0, 180
-713.8667106628418 ,-167.33047366142273 ,1513.0001306533813, 0, 0, 180
-670.982837677002 ,-162.68548369407654 ,1471.000075340271, 0, 0, 180
-654.9661755561829 ,-161.57951951026917 ,1461.0000848770142, 0, 0, 180
-634.2612504959106 ,-159.25702452659607 ,1440.000057220459, 0, 0, 180
-620.3749179840088 ,-158.59344601631165 ,1434.000015258789, 0, 0, 180
-617.626965045929 ,-160.8053594827652 ,1454.0001153945923, 0, 0, 180
-617.0669794082642 ,-163.6808216571808 ,1480.0000190734863, 0, 0, 180
-608.7355017662048 ,-164.56559300422668 ,1488.0000352859497, 0, 0, 180
-597.0686078071594 ,-164.56559300422668 ,1488.0000352859497, 0, 0, 180
-584.6148133277893 ,-164.3444001674652 ,1486.0000610351562, 0, 0, 180
-571.4212656021118 ,-163.90202939510345 ,1482.0001125335693, 0, 0, 180
-559.0458512306213 ,-163.6808216571808 ,1480.0000190734863, 0, 0, 180
-551.1406660079956 ,-164.78678584098816 ,1490.0001287460327, 0, 0, 180
-547.785222530365 ,-167.33047366142273 ,1513.0001306533813, 0, 0, 180
-533.4427356719971 ,-166.55629873275757 ,1506.00004196167, 0, 0, 180
-522.3273634910583 ,-166.77749156951904 ,1508.0000162124634, 0, 0, 180
-510.5035901069641 ,-166.77749156951904 ,1508.0000162124634, 0, 0, 180
-498.0184733867645 ,-166.55629873275757 ,1506.00004196167, 0, 0, 180
-485.5647087097168 ,-166.3351207971573 ,1504.0000677108765, 0, 0, 180
-469.3622589111328 ,-164.78678584098816 ,1490.0001287460327, 0, 0, 180
-453.6864459514618 ,-163.34904730319977 ,1477.000117301941, 0, 0, 180
-440.3097629547119 ,-162.68548369407654 ,1471.000075340271, 0, 0, 180
-428.7760853767395 ,-162.68548369407654 ,1471.000075340271, 0, 0, 180
-417.2424376010895 ,-162.68548369407654 ,1471.000075340271, 0, 0, 180
-403.50234508514404 ,-161.80071234703064 ,1463.0000591278076, 0, 0, 180
-387.47602701187134 ,-159.9206030368805 ,1446.000099182129, 0, 0, 180
-376.1384189128876 ,-159.9206030368805 ,1446.000099182129, 0, 0, 180
-364.8007810115814 ,-159.9206030368805 ,1446.000099182129, 0, 0, 180
-353.46314311027527 ,-159.9206030368805 ,1446.000099182129, 0, 0, 180
-343.0718779563904 ,-160.36297380924225 ,1450.0000476837158, 0, 0, 180
-335.1342976093292 ,-162.02190518379211 ,1465.000033378601, 0, 0, 180
-324.08955693244934 ,-162.2430980205536 ,1467.000126838684, 0, 0, 180
-312.5872611999512 ,-162.2430980205536 ,1467.000126838684, 0, 0, 180
-303.7530481815338 ,-163.6808216571808 ,1480.0000190734863, 0, 0, 180
-294.715017080307 ,-165.11856019496918 ,1493.0000305175781, 0, 0, 180
-283.76710414886475 ,-165.56094586849213 ,1497.0000982284546, 0, 0, 180
-274.0284502506256 ,-166.77749156951904 ,1508.0000162124634, 0, 0, 180
-263.0741000175476 ,-167.33047366142273 ,1513.0001306533813, 0, 0, 180
-248.2225000858307 ,-165.33976793289185 ,1495.0001239776611, 0, 0, 180
-232.70398378372192 ,-162.68548369407654 ,1471.000075340271, 0, 0, 180
-221.7717319726944 ,-163.1278544664383 ,1475.000023841858, 0, 0, 180
-209.9217027425766 ,-162.90666162967682 ,1473.0000495910645, 0, 0, 180
-196.3522881269455 ,-161.24774515628815 ,1458.0000638961792, 0, 0, 180
-183.39857459068298 ,-159.9206030368805 ,1446.000099182129, 0, 0, 180
-173.0128824710846 ,-160.8053594827652 ,1454.0001153945923, 0, 0, 180
-162.3905748128891 ,-161.57951951026917 ,1461.0000848770142, 0, 0, 180
-150.62537789344788 ,-161.24774515628815 ,1458.0000638961792, 0, 0, 180
-137.2842937707901 ,-159.0358316898346 ,1438.0000829696655, 0, 0, 180
-125.13309717178345 ,-157.92988240718842 ,1428.0000925064087, 0, 0, 180
-114.25573378801346 ,-158.37226808071136 ,1432.0000410079956, 0, 0, 180
-103.02787274122238 ,-158.37226808071136 ,1432.0000410079956, 0, 0, 180
-92.31285005807877 ,-159.25702452659607 ,1440.000057220459, 0, 0, 180
-82.31636881828308 ,-161.80071234703064 ,1463.0000591278076, 0, 0, 180
-71.23284041881561 ,-162.68548369407654 ,1471.000075340271, 0, 0, 180
-58.92808362841606 ,-160.58416664600372 ,1452.0000219345093, 0, 0, 180
-47.54341021180153 ,-160.58416664600372 ,1452.0000219345093, 0, 0, 180
-39.17684778571129,-152.0766168832779,1480.0000190734863, 0,  0, 180
-50.40363967418671,-150.94631910324097,1469.0001010894775, 0,  0, 180
-62.005918473005295,-151.15182101726532,1471.000075340271, 0,  0, 180
-73.98950308561325,-152.0766168832779,1480.0000190734863, 0,  0, 180
-85.07322520017624,-151.15182101726532,1471.000075340271, 0,  0, 180
-95.35905718803406,-149.1994857788086,1452.0000219345093, 0,  0, 180
-116.50130897760391,-147.1444070339203,1432.0000410079956, 0,  0, 180
-127.55079567432404,-146.93889021873474,1430.0000667572021, 0,  0, 180
-140.12150466442108,-148.37746322155,1444.0001249313354, 0,  0, 180
-153.2263606786728,-150.12428164482117,1461.0000848770142, 0,  0, 180
-164.68161344528198,-150.12428164482117,1461.0000848770142, 0,  0, 180
-175.05182325839996,-149.1994857788086,1452.0000219345093, 0,  0, 180
-186.95010244846344,-149.6105194091797,1456.0000896453857, 0,  0, 180
-200.40975511074066,-151.15182101726532,1471.000075340271, 0,  0, 180
-211.94341778755188,-151.15182101726532,1471.000075340271, 0,  0, 180
-221.50206565856934,-149.81602132320404,1458.0000638961792, 0,  0, 180
-232.93380439281464,-149.81602132320404,1458.0000638961792, 0,  0, 180
-246.54437601566315,-151.15182101726532,1471.000075340271, 0,  0, 180
-263.86767625808716,-154.5427292585373,1504.0000677108765, 0,  0, 180
-276.0266363620758,-154.74823117256165,1506.00004196167, 0,  0, 180
-284.7767174243927,-153.10417115688324,1490.0001287460327, 0,  0, 180
-294.4696843624115,-152.0766168832779,1480.0000190734863, 0,  0, 180
-305.0398528575897,-151.56283974647522,1475.000023841858, 0,  0, 180
-317.03418493270874,-151.76835656166077,1477.000117301941, 0,  0, 180
-328.16988229751587,-151.56283974647522,1475.000023841858, 0,  0, 180
-337.4316096305847,-150.53530037403107,1465.000033378601, 0,  0, 180
-348.4418988227844,-150.32978355884552,1463.0000591278076, 0,  0, 180
-359.4208061695099,-150.12428164482117,1461.0000848770142, 0,  0, 180
-370.8760738372803,-150.12428164482117,1461.0000848770142, 0,  0, 180
-380.4994821548462,-149.40500259399414,1454.0001153945923, 0,  0, 180
-392.97792315483093,-149.81602132320404,1458.0000638961792, 0,  0, 180
-409.1249704360962,-151.56283974647522,1475.000023841858, 0,  0, 180
-423.25693368911743,-152.4876356124878,1484.0000867843628, 0,  0, 180
-437.5300109386444,-153.41241657733917,1493.0000305175781, 0,  0, 180
-448.3335018157959,-153.10417115688324,1490.0001287460327, 0,  0, 180
-456.9287598133087,-152.0766168832779,1480.0000190734863, 0,  0, 180
-477.3971140384674,-154.953733086586,1508.0000162124634, 0,  0, 180
-497.33129143714905,-157.52260386943817,1533.000111579895, 0,  0, 180
-511.6768479347229,-158.2418829202652,1540.000081062317, 0,  0, 180
-523.7515568733215,-158.2418829202652,1540.000081062317, 0,  0, 180
-540.6973361968994,-159.68044102191925,1554.0000200271606, 0,  0, 180
-561.4205002784729,-162.14655339717865,1578.0000686645508, 0,  0, 180
-547.9051470756531,-151.56283974647522,1475.000023841858, 0,  0, 180
-561.3666772842407,-152.0766168832779,1480.0000190734863, 0,  0, 180
-572.9709267616272,-152.0766168832779,1480.0000190734863, 0,  0, 180
-598.5963344573975,-152.69313752651215,1486.0000610351562, 0,  0, 180
-613.9436364173889,-153.61793339252472,1495.0001239776611, 0,  0, 180
-613.9382123947144,-147.9664444923401,1440.000057220459, 0,  0, 180
-613.9399409294128,-145.29481530189514,1414.0000343322754, 0,  0, 180
