-465.68381786346436,-497.1614181995392,1471.000075340271, 0,  0, 180
-472.9999899864197,-492.7677512168884,1458.0000638961792, 0,  0, 180
-486.7575168609619,-495.13354897499084,1465.000033378601, 0,  0, 180
-728.1022071838379,-511.3564133644104,1513.0001306533813, 0,  0, 180
-738.4979724884033,-510.34247875213623,1510.0001096725464, 0,  0, 180
-751.828134059906,-511.3564133644104,1513.0001306533813, 0,  0, 180
-761.1672282218933,-509.6665024757385,1508.0000162124634, 0,  0, 180
-771.9658613204956,-508.9905261993408,1506.00004196167, 0,  0, 180
-785.8557105064392,-510.34247875213623,1510.0001096725464, 0,  0, 180
-794.5255041122437,-508.3146095275879,1504.0000677108765, 0,  0, 180
-803.6373257637024,-506.624698638916,1499.000072479248, 0,  0, 180
-812.1267557144165,-504.5968294143677,1493.0000305175781, 0,  0, 180
-822.1775889396667,-503.5829544067383,1490.0001287460327, 0,  0, 180
-837.7776145935059,-505.9487819671631,1497.0000982284546, 0,  0, 180
-855.7573556900024,-509.6665024757385,1508.0000162124634, 0,  0, 180
-870.4578280448914,-511.3564133644104,1513.0001306533813, 0,  0, 180
-883.4870457649231,-512.0323300361633,1515.0001049041748, 0,  0, 180
-891.2286758422852,-509.6665024757385,1508.0000162124634, 0,  0, 180
-896.4652419090271,-505.9487819671631,1497.0000982284546, 0,  0, 180
-897.8891372680664,-500.2031922340393,1480.0000190734863, 0,  0, 180
-905.1916003227234,-497.8373646736145,1473.0000495910645, 0,  0, 180
-911.7620587348938,-495.13354897499084,1465.000033378601, 0,  0, 180
-916.3164496421814,-491.4158582687378,1454.0001153945923, 0,  0, 180
-927.716851234436,-491.4158582687378,1454.0001153945923, 0,  0, 180
-944.9301362037659,-494.4576025009155,1463.0000591278076, 0,  0, 180
-962.9383087158203,-497.8373646736145,1473.0000495910645, 0,  0, 180
-981.7649126052856,-501.55508518218994,1484.0000867843628, 0,  0, 180
-1003.441572189331,-506.624698638916,1499.000072479248, 0,  0, 180
-1012.4858617782593,-505.27286529541016,1495.0001239776611, 0,  0, 180
-1011.876106262207,-499.1892874240875,1477.000117301941, 0,  0, 180
-1012.3698711395264,-493.7816858291626,1461.0000848770142, 0,  0, 180
-1016.1166191101074,-490.06393551826477,1450.0000476837158, 0,  0, 180
-1024.651288986206,-488.71204257011414,1446.000099182129, 0,  0, 180
-1033.1228971481323,-487.3601198196411,1442.0000314712524, 0,  0, 180
-1045.8779335021973,-488.0360960960388,1444.0001249313354, 0,  0, 180
-1312.8478527069092,-503.5829544067383,1490.0001287460327, 0,  0, 180
-1317.418932914734,-500.879168510437,1482.0001125335693, 0,  0, 180
-1327.2452354431152,-500.2031922340393,1480.0000190734863, 0,  0, 180
-1328.898549079895,-496.48547172546387,1469.0001010894775, 0,  0, 180
-1336.7666006088257,-495.13354897499084,1465.000033378601, 0,  0, 180
-1351.934552192688,-496.48547172546387,1469.0001010894775, 0,  0, 180
-1363.452434539795,-496.48547172546387,1469.0001010894775, 0,  0, 180
-1373.0984926223755,-495.80952525138855,1467.000126838684, 0,  0, 180
-1368.5555458068848,-490.06393551826477,1450.0000476837158, 0,  0, 180
-1374.022364616394,-483.9803874492645,1432.0000410079956, 0,  0, 180
-1400.7278680801392,-489.38798904418945,1448.0000734329224, 0,  0, 180
-1415.9818887710571,-490.7398819923401,1452.0000219345093, 0,  0, 180
-1427.3666143417358,-490.7398819923401,1452.0000219345093, 0,  0, 180
-1416.952133178711,-483.3044409751892,1430.0000667572021, 0,  0, 180
-1418.6668395996094 ,-473.41275215148926 ,1434.000015258789, 0, 0, 180
-1409.3862771987915 ,-474.07305240631104 ,1436.000108718872, 0, 0, 180
-1392.2852277755737 ,-472.09224104881287 ,1430.0000667572021, 0, 0, 180
-1377.210021018982 ,-470.7717299461365 ,1426.0001182556152, 0, 0, 180
-1344.954252243042 ,-463.5087549686432 ,1404.0000438690186, 0, 0, 180
-1315.8940076828003 ,-457.2362005710602 ,1385.0001096725464, 0, 0, 180
-1347.436547279358 ,-472.09224104881287 ,1430.0000667572021, 0, 0, 180
-1367.0603036880493 ,-482.9866886138916 ,1463.0000591278076, 0, 0, 180
-1355.5892705917358 ,-482.9866886138916 ,1463.0000591278076, 0, 0, 180
-1332.1747779846191 ,-478.6949157714844 ,1450.0000476837158, 0, 0, 180
-1311.6967678070068 ,-475.3935933113098 ,1440.000057220459, 0, 0, 180
-1304.018497467041 ,-476.7141342163086 ,1444.0001249313354, 0, 0, 180
-1305.2295446395874 ,-481.33599758148193 ,1458.0000638961792, 0, 0, 180
-1298.2347011566162 ,-482.9866886138916 ,1463.0000591278076, 0, 0, 180
-1028.002142906189 ,-474.7333228588104 ,1438.0000829696655, 0, 0, 180
-1025.2118110656738 ,-478.6949157714844 ,1450.0000476837158, 0, 0, 180
-1019.4364786148071 ,-481.33599758148193 ,1458.0000638961792, 0, 0, 180
-1011.4614963531494 ,-482.9866886138916 ,1463.0000591278076, 0, 0, 180
-1004.091739654541 ,-484.96749997138977 ,1469.0001010894775, 0, 0, 180
-987.1683120727539 ,-482.3264181613922 ,1461.0000848770142, 0, 0, 180
-979.7201752662659 ,-484.3072295188904 ,1467.000126838684, 0, 0, 180
-973.497748374939 ,-486.94828152656555 ,1475.000023841858, 0, 0, 180
-961.9327187538147 ,-486.94828152656555 ,1475.000023841858, 0, 0, 180
-946.5018510818481 ,-484.96749997138977 ,1469.0001010894775, 0, 0, 180
-931.1649799346924 ,-482.9866886138916 ,1463.0000591278076, 0, 0, 180
-915.2936339378357 ,-480.67575693130493 ,1456.0000896453857, 0, 0, 180
-901.3943672180176 ,-479.35518622398376 ,1452.0000219345093, 0, 0, 180
-895.5262899398804 ,-482.3264181613922 ,1461.0000848770142, 0, 0, 180
-895.5682516098022 ,-488.59894275665283 ,1480.0000190734863, 0, 0, 180
-892.9231762886047 ,-493.55101585388184 ,1495.0001239776611, 0, 0, 180
-884.7379088401794 ,-495.53176760673523 ,1501.0000467300415, 0, 0, 180
-871.8058466911316 ,-494.8715269565582 ,1499.000072479248, 0, 0, 180
-862.921416759491 ,-496.5221881866455 ,1504.0000677108765, 0, 0, 180
-839.8107886314392 ,-489.919513463974 ,1484.0000867843628, 0, 0, 180
-815.3396248817444 ,-482.3264181613922 ,1461.0000848770142, 0, 0, 180
-797.8318333625793 ,-478.6949157714844 ,1450.0000476837158, 0, 0, 180
-795.6834435462952 ,-484.3072295188904 ,1467.000126838684, 0, 0, 180
-800.2175688743591 ,-494.21125650405884 ,1497.0000982284546, 0, 0, 180
-790.5868887901306 ,-495.53176760673523 ,1501.0000467300415, 0, 0, 180
-777.780294418335 ,-494.8715269565582 ,1499.000072479248, 0, 0, 180
-768.5821652412415 ,-496.5221881866455 ,1504.0000677108765, 0, 0, 180
-755.2801966667175 ,-495.53176760673523 ,1501.0000467300415, 0, 0, 180
-743.5113787651062 ,-495.53176760673523 ,1501.0000467300415, 0, 0, 180
-734.1800332069397 ,-497.1824586391449 ,1506.00004196167, 0, 0, 180
-487.10572719573975 ,-486.28801107406616 ,1473.0000495910645, 0, 0, 180
-475.5563735961914 ,-486.28801107406616 ,1473.0000495910645, 0, 0, 180
-467.4721956253052 ,-489.919513463974 ,1484.0000867843628, 0, 0, 180
-456.4509093761444 ,-490.5797839164734 ,1486.0000610351562, 0, 0, 180
-446.89494371414185 ,-492.89071559906006 ,1493.0000305175781, 0, 0, 180
-437.52068281173706 ,-495.53176760673523 ,1501.0000467300415, 0, 0, 180
-428.30461263656616 ,-498.5029995441437 ,1510.0001096725464, 0, 0, 180
-418.94739866256714 ,-501.47420167922974 ,1519.0000534057617, 0, 0, 180
-407.0373773574829 ,-501.47420167922974 ,1519.0000534057617, 0, 0, 180
-393.56669783592224 ,-499.49342012405396 ,1513.0001306533813, 0, 0, 180
-381.7037343978882 ,-499.49342012405396 ,1513.0001306533813, 0, 0, 180
-368.61851811408997 ,-497.8426992893219 ,1508.0000162124634, 0, 0, 180
-354.6653687953949 ,-494.8715269565582 ,1499.000072479248, 0, 0, 180
-341.9971168041229 ,-493.55101585388184 ,1495.0001239776611, 0, 0, 180
-332.2635889053345 ,-496.5221881866455 ,1504.0000677108765, 0, 0, 180
-324.7327506542206 ,-503.1248927116394 ,1524.0000486373901, 0, 0, 180
-312.78353929519653 ,-503.1248927116394 ,1524.0000486373901, 0, 0, 180
-298.0707883834839 ,-498.5029995441437 ,1510.0001096725464, 0, 0, 180
-284.5253050327301 ,-495.53176760673523 ,1501.0000467300415, 0, 0, 180
-274.0284502506256 ,-497.8426992893219 ,1508.0000162124634, 0, 0, 180
-264.6389603614807 ,-502.4645924568176 ,1522.0000743865967, 0, 0, 180
-253.03751230239868 ,-503.1248927116394 ,1524.0000486373901, 0, 0, 180
-241.08828604221344 ,-503.1248927116394 ,1524.0000486373901, 0, 0, 180
-229.43976521492004 ,-503.7851333618164 ,1526.0000228881836, 0, 0, 180
-217.90243685245514 ,-504.7755241394043 ,1529.0000438690186, 0, 0, 180
-205.91402053833008 ,-504.7755241394043 ,1529.0000438690186, 0, 0, 180
-193.29144060611725 ,-503.1248927116394 ,1524.0000486373901, 0, 0, 180
-179.6763688325882 ,-498.5029995441437 ,1510.0001096725464, 0, 0, 180
-167.6146239042282 ,-497.8426992893219 ,1508.0000162124634, 0, 0, 180
-156.92727267742157 ,-501.47420167922974 ,1519.0000534057617, 0, 0, 180
-145.49461007118225 ,-503.1248927116394 ,1524.0000486373901, 0, 0, 180
-133.72066617012024 ,-503.7851333618164 ,1526.0000228881836, 0, 0, 180
-122.31428176164627 ,-506.09612464904785 ,1533.000111579895, 0, 0, 180
-111.30175739526749 ,-510.7179880142212 ,1547.0000505447388, 0, 0, 180
-99.62094575166702 ,-513.0289196968079 ,1554.0000200271606, 0, 0, 180
-85.46723425388336 ,-501.47420167922974 ,1519.0000534057617, 0, 0, 180
-71.95921242237091 ,-490.5797839164734 ,1486.0000610351562, 0, 0, 180
-59.090424329042435 ,-480.67575693130493 ,1456.0000896453857, 0, 0, 180
-47.28146642446518 ,-476.7141342163086 ,1444.0001249313354, 0, 0, 180
-36.059118807315826 ,-478.0346751213074 ,1448.0000734329224, 0, 0, 180
-24.876419454813004 ,-481.33599758148193 ,1458.0000638961792, 0, 0, 180
-27.609890326857567,-477.6393473148346,1482.0001125335693, 0,  0, 180
-39.28273171186447,-478.28391194343567,1484.0000867843628, 0,  0, 180
-50.91831088066101,-478.28391194343567,1484.0000867843628, 0,  0, 180
-62.63820081949234,-478.92850637435913,1486.0000610351562, 0,  0, 180
-88.9480784535408,-495.6877827644348,1538.0001068115234, 0,  0, 180
-102.8459370136261,-504.71198558807373,1566.0001039505005, 0,  0, 180
-115.12445658445358,-504.71198558807373,1566.0001039505005, 0,  0, 180
-126.26399099826813,-500.1998543739319,1552.0000457763672, 0,  0, 180
-137.36239075660706,-496.3323771953583,1540.000081062317, 0,  0, 180
-148.36964011192322,-492.78712272644043,1529.0000438690186, 0,  0, 180
-158.8897705078125,-488.275021314621,1515.0001049041748, 0,  0, 180
-168.9649224281311,-483.11832547187805,1499.000072479248, 0,  0, 180
-181.56202137470245,-485.3743612766266,1506.00004196167, 0,  0, 180
-195.68128883838654,-491.17565155029297,1524.0000486373901, 0,  0, 180
-242.35980212688446,-488.91961574554443,1517.0000791549683, 0,  0, 180
-255.42733073234558,-491.17565155029297,1524.0000486373901, 0,  0, 180
-268.6046361923218,-493.4317171573639,1531.000018119812, 0,  0, 180
-277.67619490623474,-488.275021314621,1515.0001049041748, 0,  0, 180
-286.8790924549103,-483.7628901004791,1501.0000467300415, 0,  0, 180
-300.43867230415344,-486.6635799407959,1510.0001096725464, 0,  0, 180
-316.6210353374481,-493.4317171573639,1531.000018119812, 0,  0, 180
-329.05444502830505,-494.07631158828735,1533.000111579895, 0,  0, 180
-339.0718102455139,-491.17565155029297,1524.0000486373901, 0,  0, 180
-351.4816462993622,-491.82024598121643,1526.0000228881836, 0,  0, 180
-361.30306124687195,-488.91961574554443,1517.0000791549683, 0,  0, 180
-369.2612051963806,-483.7628901004791,1501.0000467300415, 0,  0, 180
-378.9992928504944,-481.18454217910767,1493.0000305175781, 0,  0, 180
-389.9203836917877,-480.21769523620605,1490.0001287460327, 0,  0, 180
-404.0287435054779,-483.11832547187805,1499.000072479248, 0,  0, 180
-416.33668541908264,-483.7628901004791,1501.0000467300415, 0,  0, 180
-427.53514647483826,-483.11832547187805,1499.000072479248, 0,  0, 180
-440.75360894203186,-484.7297966480255,1504.0000677108765, 0,  0, 180
-451.64331793785095,-483.7628901004791,1501.0000467300415, 0,  0, 180
-460.016131401062,-480.21769523620605,1490.0001287460327, 0,  0, 180
-473.9148020744324,-482.4737310409546,1497.0000982284546, 0,  0, 180
-482.73250460624695,-479.5730710029602,1488.0000352859497, 0,  0, 180
-731.161892414093,-481.8291664123535,1495.0001239776611, 0,  0, 180
-741.8898344039917,-481.18454217910767,1493.0000305175781, 0,  0, 180
-756.6245198249817,-483.11832547187805,1499.000072479248, 0,  0, 180
-768.3777213096619,-483.11832547187805,1499.000072479248, 0,  0, 180
-778.0491709709167,-481.8291664123535,1495.0001239776611, 0,  0, 180
-795.5955862998962,-478.28391194343567,1484.0000867843628, 0,  0, 180
-799.0718483924866,-473.4495282173157,1469.0001010894775, 0,  0, 180
-808.3825707435608,-472.16030955314636,1465.000033378601, 0,  0, 180
-823.227047920227,-474.09409284591675,1471.000075340271, 0,  0, 180
-852.622926235199,-477.6393473148346,1482.0001125335693, 0,  0, 180
-867.7417039871216,-479.5730710029602,1488.0000352859497, 0,  0, 180
-883.5457563400269,-481.8291664123535,1495.0001239776611, 0,  0, 180
-892.2733664512634,-480.21769523620605,1490.0001287460327, 0,  0, 180
-900.3158807754517,-478.28391194343567,1484.0000867843628, 0,  0, 180
-907.6497554779053,-476.02787613868713,1477.000117301941, 0,  0, 180
-917.9856777191162,-475.3832519054413,1475.000023841858, 0,  0, 180
-936.4829659461975,-478.92850637435913,1486.0000610351562, 0,  0, 180
-949.4103193283081,-479.5730710029602,1488.0000352859497, 0,  0, 180
-958.493709564209,-478.28391194343567,1484.0000867843628, 0,  0, 180
-968.8218832015991,-477.6393473148346,1482.0001125335693, 0,  0, 180
-979.1185855865479,-476.99472308158875,1480.0000190734863, 0,  0, 180
-986.037015914917,-474.7386872768402,1473.0000495910645, 0,  0, 180
-993.5228824615479,-472.8049337863922,1467.000126838684, 0,  0, 180
-1009.1357231140137,-474.7386872768402,1473.0000495910645, 0,  0, 180
-1022.0708847045898,-475.3832519054413,1475.000023841858, 0,  0, 180
-1030.8328866958618,-474.09409284591675,1471.000075340271, 0,  0, 180
-1035.2803468704224,-470.8711504936218,1461.0000848770142, 0,  0, 180
-1035.9888076782227,-466.03676676750183,1446.000099182129, 0,  0, 180
-1287.2958183288574,-470.8711504936218,1461.0000848770142, 0,  0, 180
-1304.0847778320312,-472.8049337863922,1467.000126838684, 0,  0, 180
-1307.5159788131714,-469.9042737483978,1458.0000638961792, 0,  0, 180
-1311.7105960845947,-467.32592582702637,1450.0000476837158, 0,  0, 180
-1321.2547302246094,-466.6813313961029,1448.0000734329224, 0,  0, 180
-1338.1298780441284,-468.6151146888733,1454.0001153945923, 0,  0, 180
-1359.7397804260254,-472.16030955314636,1465.000033378601, 0,  0, 180
-1373.0984926223755,-472.8049337863922,1467.000126838684, 0,  0, 180
-1359.1172695159912,-464.10298347473145,1440.000057220459, 0,  0, 180
-1351.3743877410889,-457.657128572464,1420.0000762939453, 0,  0, 180
-1377.860426902771,-462.8138244152069,1436.000108718872, 0,  0, 180
-1394.9236869812012,-464.7475779056549,1442.0000314712524, 0,  0, 180
-1396.4780569076538,-461.52463555336,1432.0000410079956, 0,  0, 180
-1409.6720218658447,-462.16920018196106,1434.000015258789, 0,  0, 180
-1432.806134223938,-466.03676676750183,1446.000099182129, 0,  0, 180
-1441.8762922286987 ,-454.69915866851807 ,1446.000099182129, 0, 0, 180
-1418.6668395996094 ,-450.92570781707764 ,1434.000015258789, 0, 0, 180
-1397.6086378097534 ,-447.78117537498474 ,1424.0000247955322, 0, 0, 180
-1403.9686918258667 ,-453.441321849823 ,1442.0000314712524, 0, 0, 180
-1412.943959236145 ,-460.04486083984375 ,1463.0000591278076, 0, 0, 180
-1396.6833353042603 ,-458.4725797176361 ,1458.0000638961792, 0, 0, 180
-1381.4512491226196 ,-457.2148025035858 ,1454.0001153945923, 0, 0, 180
-1380.415678024292 ,-460.6737494468689 ,1465.000033378601, 0, 0, 180
-1378.2732486724854 ,-463.8182818889618 ,1475.000023841858, 0, 0, 180
-1364.855170249939 ,-463.18939328193665 ,1473.0000495910645, 0, 0, 180
-1347.793459892273 ,-461.3026976585388 ,1467.000126838684, 0, 0, 180
-1338.1129503250122 ,-461.93158626556396 ,1469.0001010894775, 0, 0, 180
-1330.2072286605835 ,-463.18939328193665 ,1473.0000495910645, 0, 0, 180
-1326.7148733139038 ,-466.01948142051697 ,1482.0001125335693, 0, 0, 180
-1331.955075263977 ,-471.9940721988678 ,1501.0000467300415, 0, 0, 180
-1045.8742380142212 ,-460.04486083984375 ,1463.0000591278076, 0, 0, 180
-1041.4738655090332 ,-463.18939328193665 ,1473.0000495910645, 0, 0, 180
-1032.7214002609253 ,-464.4472002983093 ,1477.000117301941, 0, 0, 180
-1024.597406387329 ,-466.01948142051697 ,1482.0001125335693, 0, 0, 180
-1009.5599889755249 ,-464.4472002983093 ,1477.000117301941, 0, 0, 180
-983.7271571159363 ,-463.18939328193665 ,1473.0000495910645, 0, 0, 180
-972.1778035163879 ,-463.18939328193665 ,1473.0000495910645, 0, 0, 180
-958.0198526382446 ,-461.93158626556396 ,1469.0001010894775, 0, 0, 180
-946.5018510818481 ,-461.93158626556396 ,1469.0001010894775, 0, 0, 180
-945.8039402961731 ,-467.27728843688965 ,1486.0000610351562, 0, 0, 180
-934.1527223587036 ,-467.27728843688965 ,1486.0000610351562, 0, 0, 180
-922.5014448165894 ,-467.27728843688965 ,1486.0000610351562, 0, 0, 180
-916.3667559623718 ,-470.10737657546997 ,1495.0001239776611, 0, 0, 180
-910.0910425186157 ,-472.9374349117279 ,1504.0000677108765, 0, 0, 180
-901.8822908401489 ,-474.8241603374481 ,1510.0001096725464, 0, 0, 180
-890.0428414344788 ,-474.8241603374481 ,1510.0001096725464, 0, 0, 180
-869.4795370101929 ,-470.10737657546997 ,1495.0001239776611, 0, 0, 180
-852.5938987731934 ,-467.27728843688965 ,1486.0000610351562, 0, 0, 180
-847.1676707267761 ,-470.7362651824951 ,1497.0000982284546, 0, 0, 180
-834.3139886856079 ,-470.10737657546997 ,1495.0001239776611, 0, 0, 180
-817.6400661468506 ,-467.27728843688965 ,1486.0000610351562, 0, 0, 180
-804.904043674469 ,-466.6483700275421 ,1484.0000867843628, 0, 0, 180
-793.2684421539307 ,-466.6483700275421 ,1484.0000867843628, 0, 0, 180
-783.7396860122681 ,-467.9061770439148 ,1488.0000352859497, 0, 0, 180
-776.7425179481506 ,-470.7362651824951 ,1497.0000982284546, 0, 0, 180
-767.0490741729736 ,-471.9940721988678 ,1501.0000467300415, 0, 0, 180
-752.2611618041992 ,-470.10737657546997 ,1495.0001239776611, 0, 0, 180
-736.0812425613403 ,-467.27728843688965 ,1486.0000610351562, 0, 0, 180
-722.4799990653992 ,-466.01948142051697 ,1482.0001125335693, 0, 0, 180
-485.12160778045654 ,-461.3026976585388 ,1467.000126838684, 0, 0, 180
-486.2104058265686 ,-473.56632351875305 ,1506.00004196167, 0, 0, 180
-471.567302942276 ,-470.7362651824951 ,1497.0000982284546, 0, 0, 180
-459.82977747917175 ,-470.7362651824951 ,1497.0000982284546, 0, 0, 180
-450.1875340938568 ,-472.9374349117279 ,1504.0000677108765, 0, 0, 180
-436.35475635528564 ,-470.7362651824951 ,1497.0000982284546, 0, 0, 180
-425.75180530548096 ,-471.9940721988678 ,1501.0000467300415, 0, 0, 180
-419.7748303413391 ,-478.59758138656616 ,1522.0000743865967, 0, 0, 180
-405.96553683280945 ,-476.39644145965576 ,1515.0001049041748, 0, 0, 180
-389.92494344711304 ,-471.36515378952026 ,1499.000072479248, 0, 0, 180
-377.6671886444092 ,-470.7362651824951 ,1497.0000982284546, 0, 0, 180
-373.75181913375854 ,-480.79875111579895 ,1529.0000438690186, 0, 0, 180
-364.83919620513916 ,-484.88664627075195 ,1542.0000553131104, 0, 0, 180
-351.14753246307373 ,-482.68547654151917 ,1535.0000858306885, 0, 0, 180
-338.6702537536621 ,-482.056587934494 ,1533.000111579895, 0, 0, 180
-327.07664370536804 ,-482.68547654151917 ,1535.0000858306885, 0, 0, 180
-314.6306872367859 ,-482.056587934494 ,1533.000111579895, 0, 0, 180
-301.2291491031647 ,-479.85538840293884 ,1526.0000228881836, 0, 0, 180
-290.59115052223206 ,-482.056587934494 ,1533.000111579895, 0, 0, 180
-279.4799506664276 ,-483.6288392543793 ,1538.0001068115234, 0, 0, 180
-265.33445715904236 ,-479.85538840293884 ,1526.0000228881836, 0, 0, 180
-251.21113657951355 ,-475.7675230503082 ,1513.0001306533813, 0, 0, 180
-238.87357115745544 ,-474.8241603374481 ,1510.0001096725464, 0, 0, 180
-215.1947021484375 ,-474.8241603374481 ,1510.0001096725464, 0, 0, 180
-204.5672982931137 ,-477.65421867370605 ,1519.0000534057617, 0, 0, 180
-193.92560422420502 ,-480.79875111579895 ,1529.0000438690186, 0, 0, 180
-181.3422441482544 ,-479.2264997959137 ,1524.0000486373901, 0, 0, 180
-169.39303278923035 ,-479.2264997959137 ,1524.0000486373901, 0, 0, 180
-158.16697478294373 ,-481.4276397228241 ,1531.000018119812, 0, 0, 180
-147.02211320400238 ,-484.2577576637268 ,1540.000081062317, 0, 0, 180
-135.7361078262329 ,-487.08781599998474 ,1549.0000247955322, 0, 0, 180
-123.98981302976608 ,-488.66006731987 ,1554.0000200271606, 0, 0, 180
-111.30175739526749 ,-486.4588975906372 ,1547.0000505447388, 0, 0, 180
-98.40293973684311 ,-482.68547654151917 ,1535.0000858306885, 0, 0, 180
-85.46723425388336 ,-477.65421867370605 ,1519.0000534057617, 0, 0, 180
-72.39503413438797 ,-470.10737657546997 ,1495.0001239776611, 0, 0, 180
-60.30794605612755 ,-467.27728843688965 ,1486.0000610351562, 0, 0, 180
-48.722170293331146 ,-467.9061770439148 ,1488.0000352859497, 0, 0, 180
-37.17973828315735 ,-469.47842836380005 ,1493.0000305175781, 0, 0, 180
-25.251783430576324 ,-465.39053320884705 ,1480.0000190734863, 0, 0, 180
-39.388611912727356,-456.2392234802246,1488.0000352859497, 0,  0, 180
-50.98693445324898,-455.6260108947754,1486.0000610351562, 0,  0, 180
-62.933266162872314,-457.77228474617004,1493.0000305175781, 0,  0, 180
-75.28932392597198,-461.75825595855713,1506.00004196167, 0,  0, 180
-87.50224113464355,-463.90455961227417,1513.0001306533813, 0,  0, 180
-99.16817396879196,-462.98471093177795,1510.0001096725464, 0,  0, 180
-110.56652665138245,-461.1450433731079,1504.0000677108765, 0,  0, 180
-123.09112399816513,-463.90455961227417,1513.0001306533813, 0,  0, 180
-135.75685024261475,-466.66404604911804,1522.0000743865967, 0,  0, 180
-147.39926159381866,-465.7441973686218,1519.0000534057617, 0,  0, 180
-158.8897705078125,-464.5177721977234,1515.0001049041748, 0,  0, 180
-171.5574413537979,-466.66404604911804,1522.0000743865967, 0,  0, 180
-185.05823612213135,-470.6500172615051,1535.0000858306885, 0,  0, 180
-194.78249549865723,-465.1309847831726,1517.0000791549683, 0,  0, 180
-203.95201444625854,-458.99873971939087,1497.0000982284546, 0,  0, 180
-215.97769856452942,-459.6119821071625,1499.000072479248, 0,  0, 180
-229.85778748989105,-463.90455961227417,1513.0001306533813, 0,  0, 180
-240.92192947864532,-462.37146854400635,1508.0000162124634, 0,  0, 180
-252.07528471946716,-461.1450433731079,1504.0000677108765, 0,  0, 180
-264.92032408714294,-462.98471093177795,1510.0001096725464, 0,  0, 180
-278.959184885025,-466.66404604911804,1522.0000743865967, 0,  0, 180
-292.61285066604614,-469.4235622882843,1531.000018119812, 0,  0, 180
-302.2293448448181,-465.7441973686218,1519.0000534057617, 0,  0, 180
-311.45086884498596,-461.75825595855713,1506.00004196167, 0,  0, 180
-323.2589364051819,-461.75825595855713,1506.00004196167, 0,  0, 180
-337.06942200660706,-464.5177721977234,1515.0001049041748, 0,  0, 180
-347.3357558250427,-462.37146854400635,1508.0000162124634, 0,  0, 180
-361.7793917655945,-465.7441973686218,1519.0000534057617, 0,  0, 180
-373.6893832683563,-465.7441973686218,1519.0000534057617, 0,  0, 180
-380.52240014076233,-459.6119821071625,1499.000072479248, 0,  0, 180
-392.2756016254425,-459.6119821071625,1499.000072479248, 0,  0, 180
-407.8022241592407,-463.90455961227417,1513.0001306533813, 0,  0, 180
-420.7746684551239,-465.1309847831726,1517.0000791549683, 0,  0, 180
-426.96473002433777,-458.99873971939087,1497.0000982284546, 0,  0, 180
-435.4786276817322,-455.6260108947754,1486.0000610351562, 0,  0, 180
-445.32454013824463,-453.78631353378296,1480.0000190734863, 0,  0, 180
-455.38508892059326,-452.2532522678375,1475.000023841858, 0,  0, 180
-475.18110275268555,-460.2251946926117,1501.0000467300415, 0,  0, 180
-716.4897322654724,-449.18712973594666,1465.000033378601, 0,  0, 180
-732.945442199707,-452.2532522678375,1475.000023841858, 0,  0, 180
-751.0722279548645,-456.2392234802246,1488.0000352859497, 0,  0, 180
-767.3525214195251,-458.99873971939087,1497.0000982284546, 0,  0, 180
-780.130922794342,-459.6119821071625,1499.000072479248, 0,  0, 180
-790.8275723457336,-458.99873971939087,1497.0000982284546, 0,  0, 180
-798.8122701644897,-456.8524658679962,1490.0001287460327, 0,  0, 180
-812.1267557144165,-457.77228474617004,1493.0000305175781, 0,  0, 180
-827.1437287330627,-459.6119821071625,1499.000072479248, 0,  0, 180
-838.8969302177429,-459.6119821071625,1499.000072479248, 0,  0, 180
-849.5151400566101,-458.99873971939087,1497.0000982284546, 0,  0, 180
-860.1020574569702,-458.38552713394165,1495.0001239776611, 0,  0, 180
-875.3228187561035,-460.2251946926117,1501.0000467300415, 0,  0, 180
-895.3657150268555,-464.5177721977234,1515.0001049041748, 0,  0, 180
-903.0524492263794,-462.37146854400635,1508.0000162124634, 0,  0, 180
-903.9559960365295,-456.8524658679962,1490.0001287460327, 0,  0, 180
-906.420648097992,-452.2532522678375,1475.000023841858, 0,  0, 180
-917.9856777191162,-452.2532522678375,1475.000023841858, 0,  0, 180
-936.4829659461975,-455.6260108947754,1486.0000610351562, 0,  0, 180
-948.1342434883118,-455.6260108947754,1486.0000610351562, 0,  0, 180
-946.2218880653381,-449.18712973594666,1465.000033378601, 0,  0, 180
-946.5951919555664,-443.97473335266113,1448.0000734329224, 0,  0, 180
-951.3328671455383,-440.90861082077026,1438.0000829696655, 0,  0, 180
-963.9465808868408,-441.5218234062195,1440.000057220459, 0,  0, 180
-984.7186803817749,-445.81443071365356,1454.0001153945923, 0,  0, 180
-1010.5057954788208,-452.2532522678375,1475.000023841858, 0,  0, 180
-1022.0708847045898,-452.2532522678375,1475.000023841858, 0,  0, 180
-1032.2343111038208,-451.6400396823883,1473.0000495910645, 0,  0, 180
-1042.3665046691895,-451.0268270969391,1471.000075340271, 0,  0, 180
-1043.1532859802246,-446.4276432991028,1456.0000896453857, 0,  0, 180
-1342.8053855895996,-467.27725863456726,1524.0000486373901, 0,  0, 180
-1332.5309753417969,-459.6119821071625,1499.000072479248, 0,  0, 180
-1327.2452354431152,-453.78631353378296,1480.0000190734863, 0,  0, 180
-1347.895860671997,-456.8524658679962,1490.0001287460327, 0,  0, 180
-1355.9285402297974,-455.6260108947754,1486.0000610351562, 0,  0, 180
-1369.4204092025757,-456.2392234802246,1488.0000352859497, 0,  0, 180
-1375.5184412002563,-454.39955592155457,1482.0001125335693, 0,  0, 180
-1378.7143230438232,-451.6400396823883,1473.0000495910645, 0,  0, 180
-1384.6007585525513,-449.80040192604065,1467.000126838684, 0,  0, 180
-1390.3930187225342,-447.9607045650482,1461.0000848770142, 0,  0, 180
-1405.6862592697144,-449.18712973594666,1465.000033378601, 0,  0, 180
-1410.401463508606,-447.040855884552,1458.0000638961792, 0,  0, 180
-1414.0316247940063,-444.58794593811035,1450.0000476837158, 0,  0, 180
-1413.6041402816772,-440.90861082077026,1438.0000829696655, 0,  0, 180
-1428.842544555664,-442.1350359916687,1442.0000314712524, 0,  0, 180
-1445.3781843185425 ,-436.50543689727783 ,1461.0000848770142, 0, 0, 180
-1441.7747259140015 ,-438.8956129550934 ,1469.0001010894775, 0, 0, 180
-1434.1511726379395 ,-440.09068608283997 ,1473.0000495910645, 0, 0, 180
-1424.5333671569824 ,-440.68822264671326 ,1475.000023841858, 0, 0, 180
-1412.968397140503 ,-440.68822264671326 ,1475.000023841858, 0, 0, 180
-1397.602915763855 ,-439.4931495189667 ,1471.000075340271, 0, 0, 180
-1386.0692977905273 ,-439.4931495189667 ,1471.000075340271, 0, 0, 180
-1380.1422119140625 ,-441.2858188152313 ,1477.000117301941, 0, 0, 180
-1371.3412284851074 ,-442.1820938587189 ,1480.0000190734863, 0, 0, 180
-1363.4120225906372 ,-443.37719678878784 ,1484.0000867843628, 0, 0, 180
-1349.9547243118286 ,-442.77966022491455 ,1482.0001125335693, 0, 0, 180
-1330.2072286605835 ,-440.09068608283997 ,1473.0000495910645, 0, 0, 180
-1313.2866621017456 ,-438.2981061935425 ,1467.000126838684, 0, 0, 180
-1315.0949478149414 ,-442.77966022491455 ,1482.0001125335693, 0, 0, 180
-1330.7406902313232 ,-452.0415961742401 ,1513.0001306533813, 0, 0, 180
-1045.8742380142212 ,-437.1029734611511 ,1463.0000591278076, 0, 0, 180
-1041.4738655090332 ,-440.09068608283997 ,1473.0000495910645, 0, 0, 180
-1025.7292985916138 ,-438.2981061935425 ,1467.000126838684, 0, 0, 180
-1010.0787878036499 ,-436.50543689727783 ,1461.0000848770142, 0, 0, 180
-995.2059984207153 ,-435.0115954875946 ,1456.0000896453857, 0, 0, 180
-974.3303656578064 ,-430.8287799358368 ,1442.0000314712524, 0, 0, 180
-956.3457369804382 ,-427.84106731414795 ,1432.0000410079956, 0, 0, 180
-946.4378356933594 ,-428.43860387802124 ,1434.000015258789, 0, 0, 180
-949.5418071746826 ,-435.0115954875946 ,1456.0000896453857, 0, 0, 180
-953.5893201828003 ,-442.1820938587189 ,1480.0000190734863, 0, 0, 180
-948.3498930931091 ,-445.1698362827301 ,1490.0001287460327, 0, 0, 180
-927.2376894950867 ,-440.68822264671326 ,1475.000023841858, 0, 0, 180
-903.8776159286499 ,-435.0115954875946 ,1456.0000896453857, 0, 0, 180
-890.0097012519836 ,-433.81649255752563 ,1452.0000219345093, 0, 0, 180
-887.7018690109253 ,-438.2981061935425 ,1467.000126838684, 0, 0, 180
-891.7285799980164 ,-446.06614112854004 ,1493.0000305175781, 0, 0, 180
-883.5590481758118 ,-447.8587806224823 ,1499.000072479248, 0, 0, 180
-866.5715456008911 ,-445.1698362827301 ,1490.0001287460327, 0, 0, 180
-851.4463901519775 ,-443.37719678878784 ,1484.0000867843628, 0, 0, 180
-842.074453830719 ,-444.5722699165344 ,1488.0000352859497, 0, 0, 180
-834.3139886856079 ,-446.6637074947357 ,1495.0001239776611, 0, 0, 180
-819.8410272598267 ,-445.1698362827301 ,1490.0001287460327, 0, 0, 180
-809.7854852676392 ,-446.06614112854004 ,1493.0000305175781, 0, 0, 180
-806.0975670814514 ,-450.5476951599121 ,1508.0000162124634, 0, 0, 180
-795.3272461891174 ,-451.1452615261078 ,1510.0001096725464, 0, 0, 180
-778.8180112838745 ,-448.4563171863556 ,1501.0000467300415, 0, 0, 180
-760.4057788848877 ,-444.5722699165344 ,1488.0000352859497, 0, 0, 180
-747.7324604988098 ,-443.97473335266113 ,1486.0000610351562, 0, 0, 180
-734.0998649597168 ,-442.77966022491455 ,1482.0001125335693, 0, 0, 180
-719.067394733429 ,-440.68822264671326 ,1475.000023841858, 0, 0, 180
-472.1972942352295 ,-447.8587806224823 ,1499.000072479248, 0, 0, 180
-454.60790395736694 ,-442.1820938587189 ,1480.0000190734863, 0, 0, 180
-447.49361276626587 ,-446.6637074947357 ,1495.0001239776611, 0, 0, 180
-437.52068281173706 ,-448.4563171863556 ,1501.0000467300415, 0, 0, 180
-427.1700084209442 ,-449.9501585960388 ,1506.00004196167, 0, 0, 180
-413.98289799690247 ,-448.4563171863556 ,1501.0000467300415, 0, 0, 180
-396.5867757797241 ,-442.1820938587189 ,1480.0000190734863, 0, 0, 180
-382.6414942741394 ,-439.4931495189667 ,1471.000075340271, 0, 0, 180
-375.39663910865784 ,-444.5722699165344 ,1488.0000352859497, 0, 0, 180
-368.61851811408997 ,-450.5476951599121 ,1508.0000162124634, 0, 0, 180
-355.84837198257446 ,-449.3526220321655 ,1504.0000677108765, 0, 0, 180
-342.4546420574188 ,-447.261244058609 ,1497.0000982284546, 0, 0, 180
-328.7288546562195 ,-444.5722699165344 ,1488.0000352859497, 0, 0, 180
-318.55347752571106 ,-446.6637074947357 ,1495.0001239776611, 0, 0, 180
-307.24209547042847 ,-447.261244058609 ,1497.0000982284546, 0, 0, 180
-294.715017080307 ,-446.06614112854004 ,1493.0000305175781, 0, 0, 180
-283.0088436603546 ,-446.06614112854004 ,1493.0000305175781, 0, 0, 180
-271.3027000427246 ,-446.06614112854004 ,1493.0000305175781, 0, 0, 180
-260.29208302497864 ,-447.261244058609 ,1497.0000982284546, 0, 0, 180
-250.04887580871582 ,-449.9501585960388 ,1506.00004196167, 0, 0, 180
-239.3481582403183 ,-452.0415961742401 ,1513.0001306533813, 0, 0, 180
-226.73340141773224 ,-450.5476951599121 ,1508.0000162124634, 0, 0, 180
-213.0570113658905 ,-446.6637074947357 ,1495.0001239776611, 0, 0, 180
-200.6618082523346 ,-445.1698362827301 ,1490.0001287460327, 0, 0, 180
-188.72550129890442 ,-444.5722699165344 ,1488.0000352859497, 0, 0, 180
-179.2003959417343 ,-449.9501585960388 ,1506.00004196167, 0, 0, 180
-167.83693432807922 ,-451.1452615261078 ,1510.0001096725464, 0, 0, 180
-142.9169476032257 ,-447.261244058609 ,1497.0000982284546, 0, 0, 180
-131.17945194244385 ,-447.261244058609 ,1497.0000982284546, 0, 0, 180
-119.12277340888977 ,-446.06614112854004 ,1493.0000305175781, 0, 0, 180
-106.9130077958107 ,-443.97473335266113 ,1486.0000610351562, 0, 0, 180
-94.68477964401245 ,-441.2858188152313 ,1477.000117301941, 0, 0, 180
-83.3854153752327 ,-442.77966022491455 ,1482.0001125335693, 0, 0, 180
-72.39503413438797 ,-446.6637074947357 ,1495.0001239776611, 0, 0, 180
-60.83554029464722 ,-447.8587806224823 ,1499.000072479248, 0, 0, 180
-48.722170293331146 ,-444.5722699165344 ,1488.0000352859497, 0, 0, 180
-36.631882190704346 ,-439.4931495189667 ,1471.000075340271, 0, 0, 180
-25.064103305339813 ,-438.8956129550934 ,1469.0001010894775, 0, 0, 180
-27.330439537763596,-426.7957806587219,1467.000126838684, 0,  0, 180
-38.99155184626579,-428.541362285614,1473.0000495910645, 0,  0, 180
-51.12418159842491,-433.487206697464,1490.0001287460327, 0,  0, 180
-62.806807458400726,-433.487206697464,1490.0001287460327, 0,  0, 180
-74.48943704366684,-433.487206697464,1490.0001287460327, 0,  0, 180
-86.05639636516571,-432.90531635284424,1488.0000352859497, 0,  0, 180
-97.59198874235153,-432.3234558105469,1486.0000610351562, 0,  0, 180
-110.19895225763321,-436.1055791378021,1499.000072479248, 0,  0, 180
-122.68433719873428,-438.72392177581787,1508.0000162124634, 0,  0, 180
-133.70534777641296,-436.1055791378021,1499.000072479248, 0,  0, 180
-145.26446163654327,-435.52371859550476,1497.0000982284546, 0,  0, 180
-158.8897705078125,-440.76046347618103,1515.0001049041748, 0,  0, 180
-172.00830578804016,-443.9606964588165,1526.0000228881836, 0,  0, 180
-181.3209056854248,-437.56023049354553,1504.0000677108765, 0,  0, 180
-192.2145038843155,-435.52371859550476,1497.0000982284546, 0,  0, 180
-206.13186061382294,-440.17863273620605,1513.0001306533813, 0,  0, 180
-220.3001230955124,-444.8334872722626,1529.0000438690186, 0,  0, 180
-232.28852450847626,-444.8334872722626,1529.0000438690186, 0,  0, 180
-242.67931282520294,-441.92418456077576,1519.0000534057617, 0,  0, 180
-252.07528471946716,-437.56023049354553,1504.0000677108765, 0,  0, 180
-260.709673166275,-432.3234558105469,1486.0000610351562, 0,  0, 180
-270.71139216423035,-429.7051131725311,1477.000117301941, 0,  0, 180
-281.9098234176636,-429.1232228279114,1475.000023841858, 0,  0, 180
-297.85212874412537,-435.52371859550476,1497.0000982284546, 0,  0, 180
-310.4168176651001,-436.6874098777771,1501.0000467300415, 0,  0, 180
-318.96600127220154,-432.3234558105469,1486.0000610351562, 0,  0, 180
-328.61489057540894,-429.7051131725311,1477.000117301941, 0,  0, 180
-342.26852655410767,-432.3234558105469,1486.0000610351562, 0,  0, 180
-354.8724949359894,-433.487206697464,1490.0001287460327, 0,  0, 180
-368.2771921157837,-435.52371859550476,1497.0000982284546, 0,  0, 180
-376.2069344520569,-431.15976452827454,1482.0001125335693, 0,  0, 180
-383.9014768600464,-426.7957806587219,1467.000126838684, 0,  0, 180
-399.4467258453369,-431.15976452827454,1482.0001125335693, 0,  0, 180
-415.2272045612335,-435.52371859550476,1497.0000982284546, 0,  0, 180
-428.96121740341187,-437.56023049354553,1504.0000677108765, 0,  0, 180
-440.75360894203186,-437.56023049354553,1504.0000677108765, 0,  0, 180
-452.54603028297424,-437.56023049354553,1504.0000677108765, 0,  0, 180
-460.9423279762268,-434.35996770858765,1493.0000305175781, 0,  0, 180
-729.0207743644714,-448.03375005722046,1540.000081062317, 0,  0, 180
-721.3649749755859,-436.1055791378021,1499.000072479248, 0,  0, 180
-727.7383208274841,-432.90531635284424,1488.0000352859497, 0,  0, 180
-745.8651661872864,-436.6874098777771,1501.0000467300415, 0,  0, 180
-757.6339840888977,-436.6874098777771,1501.0000467300415, 0,  0, 180
-763.7643814086914,-433.487206697464,1490.0001287460327, 0,  0, 180
-775.4470109939575,-433.487206697464,1490.0001287460327, 0,  0, 180
-790.8275723457336,-435.52371859550476,1497.0000982284546, 0,  0, 180
-798.8122701644897,-433.487206697464,1490.0001287460327, 0,  0, 180
-805.0553202629089,-430.5778741836548,1480.0000190734863, 0,  0, 180
-817.7631497383118,-431.15976452827454,1482.0001125335693, 0,  0, 180
-830.5023312568665,-431.7415952682495,1484.0000867843628, 0,  0, 180
-838.1655812263489,-429.7051131725311,1477.000117301941, 0,  0, 180
-849.7462868690491,-429.7051131725311,1477.000117301941, 0,  0, 180
-864.2427921295166,-431.15976452827454,1482.0001125335693, 0,  0, 180
-869.3616986274719,-427.95950174331665,1471.000075340271, 0,  0, 180
-874.9069571495056,-425.05019903182983,1461.0000848770142, 0,  0, 180
-883.3287954330444,-423.5955476760864,1456.0000896453857, 0,  0, 180
-897.8173732757568,-425.05019903182983,1461.0000848770142, 0,  0, 180
-911.7620587348938,-426.2138903141022,1465.000033378601, 0,  0, 180
-928.2903075218201,-428.541362285614,1473.0000495910645, 0,  0, 180
-949.4103193283081,-432.90531635284424,1488.0000352859497, 0,  0, 180
-964.306652545929,-434.35996770858765,1493.0000305175781, 0,  0, 180
-959.0160250663757,-426.7957806587219,1467.000126838684, 0,  0, 180
-957.9485058784485,-421.2680757045746,1448.0000734329224, 0,  0, 180
-967.9630398750305,-420.6862449645996,1446.000099182129, 0,  0, 180
-976.5916466712952,-419.5224940776825,1442.0000314712524, 0,  0, 180
-983.7874174118042,-417.7769422531128,1436.000108718872, 0,  0, 180
-1003.3618211746216,-421.2680757045746,1448.0000734329224, 0,  0, 180
-1029.4313430786133,-427.3776412010193,1469.0001010894775, 0,  0, 180
-1039.5320653915405,-426.7957806587219,1467.000126838684, 0,  0, 180
-1033.1228971481323,-419.5224940776825,1442.0000314712524, 0,  0, 180
-1309.3234300613403,-432.3234558105469,1486.0000610351562, 0,  0, 180
-1296.0841655731201,-424.1774082183838,1458.0000638961792, 0,  0, 180
-1305.7223558425903,-423.5955476760864,1456.0000896453857, 0,  0, 180
-1323.4708309173584,-425.6320595741272,1463.0000591278076, 0,  0, 180
-1336.7666006088257,-426.2138903141022,1465.000033378601, 0,  0, 180
-1355.615735054016,-428.541362285614,1473.0000495910645, 0,  0, 180
-1373.661994934082,-430.5778741836548,1480.0000190734863, 0,  0, 180
-1378.7143230438232,-428.541362285614,1473.0000495910645, 0,  0, 180
-1380.825400352478,-425.6320595741272,1463.0000591278076, 0,  0, 180
-1383.7313652038574,-423.01368713378906,1454.0001153945923, 0,  0, 180
-1401.8481969833374,-425.05019903182983,1461.0000848770142, 0,  0, 180
-1421.0423231124878,-427.3776412010193,1469.0001010894775, 0,  0, 180
-1430.609941482544,-426.7957806587219,1467.000126838684, 0,  0, 180
-1440.1460886001587,-426.2138903141022,1465.000033378601, 0,  0, 180
-1447.669267654419,-425.05019903182983,1461.0000848770142, 0,  0, 180
-1445.3781843185425 ,-413.59493136405945 ,1461.0000848770142, 0, 0, 180
-1427.0527362823486 ,-411.6133153438568 ,1454.0001153945923, 0, 0, 180
-1409.8105430603027 ,-409.9147617816925 ,1448.0000734329224, 0, 0, 180
-1400.3887176513672 ,-410.48094630241394 ,1450.0000476837158, 0, 0, 180
-1381.3562393188477 ,-408.2162082195282 ,1442.0000314712524, 0, 0, 180
-1371.9501495361328 ,-408.782422542572 ,1444.0001249313354, 0, 0, 180
-1376.646637916565 ,-413.59493136405945 ,1461.0000848770142, 0, 0, 180
-1376.4045238494873 ,-416.9920086860657 ,1473.0000495910645, 0, 0, 180
-1363.0019426345825 ,-416.4258539676666 ,1471.000075340271, 0, 0, 180
-1349.6309518814087 ,-415.8596694469452 ,1469.0001010894775, 0, 0, 180
-1328.0930519104004 ,-412.7456545829773 ,1458.0000638961792, 0, 0, 180
-1321.1766481399536 ,-414.1611158847809 ,1463.0000591278076, 0, 0, 180
-1313.2866621017456 ,-415.29348492622375 ,1467.000126838684, 0, 0, 180
-1318.644404411316 ,-420.672208070755 ,1486.0000610351562, 0, 0, 180
-1306.9931268692017 ,-420.672208070755 ,1486.0000610351562, 0, 0, 180
-1032.2915315628052 ,-408.782422542572 ,1444.0001249313354, 0, 0, 180
-1042.8879261016846 ,-417.5581932067871 ,1475.000023841858, 0, 0, 180
-1032.7214002609253 ,-418.12440752983093 ,1477.000117301941, 0, 0, 180
-1001.0911226272583 ,-409.9147617816925 ,1448.0000734329224, 0, 0, 180
-981.5356135368347 ,-406.5176844596863 ,1436.000108718872, 0, 0, 180
-972.9790687561035 ,-407.65005350112915 ,1440.000057220459, 0, 0, 180
-965.6955003738403 ,-409.34860706329346 ,1446.000099182129, 0, 0, 180
-956.997811794281 ,-410.48094630241394 ,1450.0000476837158, 0, 0, 180
-956.7155241966248 ,-415.29348492622375 ,1467.000126838684, 0, 0, 180
-951.6564011573792 ,-418.12440752983093 ,1477.000117301941, 0, 0, 180
-934.9839091300964 ,-415.8596694469452 ,1469.0001010894775, 0, 0, 180
-923.4659075737 ,-415.8596694469452 ,1469.0001010894775, 0, 0, 180
-913.1895303726196 ,-416.4258539676666 ,1471.000075340271, 0, 0, 180
-900.4299640655518 ,-415.8596694469452 ,1469.0001010894775, 0, 0, 180
-881.0455799102783 ,-412.17949986457825 ,1456.0000896453857, 0, 0, 180
-869.6295022964478 ,-412.17949986457825 ,1456.0000896453857, 0, 0, 180
-862.3394966125488 ,-414.1611158847809 ,1463.0000591278076, 0, 0, 180
-863.0819916725159 ,-420.10602355003357 ,1484.0000867843628, 0, 0, 180
-852.5938987731934 ,-420.672208070755 ,1486.0000610351562, 0, 0, 180
-834.7175717353821 ,-417.5581932067871 ,1475.000023841858, 0, 0, 180
-818.6880946159363 ,-415.29348492622375 ,1467.000126838684, 0, 0, 180
-809.386670589447 ,-416.4258539676666 ,1471.000075340271, 0, 0, 180
-803.8192987442017 ,-419.53983902931213 ,1482.0001125335693, 0, 0, 180
-794.3375110626221 ,-420.672208070755 ,1486.0000610351562, 0, 0, 180
-783.7396860122681 ,-421.23836278915405 ,1488.0000352859497, 0, 0, 180
-773.1105089187622 ,-421.8045771121979 ,1490.0001287460327, 0, 0, 180
-761.4278793334961 ,-421.8045771121979 ,1490.0001287460327, 0, 0, 180
-754.2738914489746 ,-424.35237765312195 ,1499.000072479248, 0, 0, 180
-737.0719313621521 ,-421.23836278915405 ,1488.0000352859497, 0, 0, 180
-729.7925353050232 ,-423.7861931324005 ,1497.0000982284546, 0, 0, 180
-760.7449889183044 ,-448.98122549057007 ,1586.0000848770142, 0, 0, 180
-455.83659410476685 ,-420.10602355003357 ,1484.0000867843628, 0, 0, 180
-446.89494371414185 ,-422.65382409095764 ,1493.0000305175781, 0, 0, 180
-431.98245763778687 ,-419.53983902931213 ,1482.0001125335693, 0, 0, 180
-420.92981934547424 ,-420.10602355003357 ,1484.0000867843628, 0, 0, 180
-409.2942476272583 ,-420.10602355003357 ,1484.0000867843628, 0, 0, 180
-396.5867757797241 ,-418.9736545085907 ,1480.0000190734863, 0, 0, 180
-386.543333530426 ,-420.672208070755 ,1486.0000610351562, 0, 0, 180
-378.67632508277893 ,-424.918532371521 ,1501.0000467300415, 0, 0, 180
-366.4185404777527 ,-424.35237765312195 ,1499.000072479248, 0, 0, 180
-352.5359630584717 ,-421.8045771121979 ,1490.0001287460327, 0, 0, 180
-340.3957784175873 ,-421.23836278915405 ,1488.0000352859497, 0, 0, 180
-331.15896582603455 ,-424.35237765312195 ,1499.000072479248, 0, 0, 180
-318.9796209335327 ,-423.7861931324005 ,1497.0000982284546, 0, 0, 180
-307.6525926589966 ,-424.35237765312195 ,1499.000072479248, 0, 0, 180
-292.9384410381317 ,-420.10602355003357 ,1484.0000867843628, 0, 0, 180
-276.37436985969543 ,-412.7456545829773 ,1458.0000638961792, 0, 0, 180
-264.21576738357544 ,-411.6133153438568 ,1454.0001153945923, 0, 0, 180
-259.5965564250946 ,-422.65382409095764 ,1493.0000305175781, 0, 0, 180
-254.19974327087402 ,-433.41124057769775 ,1531.000018119812, 0, 0, 180
-246.9414919614792 ,-441.9039785861969 ,1561.000108718872, 0, 0, 180
-234.40144956111908 ,-441.3377642631531 ,1559.000015258789, 0, 0, 180
-220.1826572418213 ,-437.3745322227478 ,1545.0000762939453, 0, 0, 180
-203.35525274276733 ,-427.46636271476746 ,1510.0001096725464, 0, 0, 180
-188.47183883190155 ,-420.672208070755 ,1486.0000610351562, 0, 0, 180
-177.29654908180237 ,-421.8045771121979 ,1490.0001287460327, 0, 0, 180
-166.83657467365265 ,-424.918532371521 ,1501.0000467300415, 0, 0, 180
-153.72467041015625 ,-421.23836278915405 ,1488.0000352859497, 0, 0, 180
-142.24867522716522 ,-421.8045771121979 ,1490.0001287460327, 0, 0, 180
-131.52995705604553 ,-424.918532371521 ,1501.0000467300415, 0, 0, 180
-119.76107209920883 ,-424.918532371521 ,1501.0000467300415, 0, 0, 180
-107.20079392194748 ,-421.8045771121979 ,1490.0001287460327, 0, 0, 180
-95.26173025369644 ,-420.672208070755 ,1486.0000610351562, 0, 0, 180
-83.72300118207932 ,-421.23836278915405 ,1488.0000352859497, 0, 0, 180
-71.95921242237091 ,-420.672208070755 ,1486.0000610351562, 0, 0, 180
-60.14561280608177 ,-419.53983902931213 ,1482.0001125335693, 0, 0, 180
-48.52571338415146 ,-419.53983902931213 ,1482.0001125335693, 0, 0, 180
-36.781299859285355 ,-418.12440752983093 ,1477.000117301941, 0, 0, 180
-25.098226964473724 ,-416.4258539676666 ,1471.000075340271, 0, 0, 180
-27.814820408821106,-410.94765067100525,1493.0000305175781, 0,  0, 180
-39.62685167789459,-412.04866766929626,1497.0000982284546, 0,  0, 180
-51.22711509466171,-410.94765067100525,1493.0000305175781, 0,  0, 180
-63.1018728017807,-412.04866766929626,1497.0000982284546, 0,  0, 180
-75.28932392597198,-414.5258963108063,1506.00004196167, 0,  0, 180
-86.5769013762474,-412.04866766929626,1497.0000982284546, 0,  0, 180
-98.31440448760986,-412.04866766929626,1497.0000982284546, 0,  0, 180
-110.3459820151329,-413.1496548652649,1501.0000467300415, 0,  0, 180
-122.35891819000244,-413.97541761398315,1504.0000677108765, 0,  0, 180
-134.50810313224792,-415.0764048099518,1508.0000162124634, 0,  0, 180
-145.65260708332062,-413.1496548652649,1501.0000467300415, 0,  0, 180
-157.00197219848633,-412.04866766929626,1497.0000982284546, 0,  0, 180
-167.72501170635223,-409.57140922546387,1488.0000352859497, 0,  0, 180
-177.58356034755707,-405.4426848888397,1473.0000495910645, 0,  0, 180
-188.61930072307587,-404.3416976928711,1469.0001010894775, 0,  0, 180
-202.9983401298523,-410.12194752693176,1490.0001287460327, 0,  0, 180
-219.291552901268,-418.92990469932556,1522.0000743865967, 0,  0, 180
-234.71927642822266,-425.26066303253174,1545.0000762939453, 0,  0, 180
-246.03433907032013,-423.88442158699036,1540.000081062317, 0,  0, 180
-251.57245993614197,-413.1496548652649,1501.0000467300415, 0,  0, 180
-257.3762536048889,-403.7911891937256,1467.000126838684, 0,  0, 180
-265.3961181640625,-398.5614478588104,1448.0000734329224, 0,  0, 180
-279.9985706806183,-403.2406806945801,1465.000033378601, 0,  0, 180
-299.24488067626953,-413.97541761398315,1504.0000677108765, 0,  0, 180
-314.13933634757996,-418.1041717529297,1519.0000534057617, 0,  0, 180
-326.6932964324951,-418.92990469932556,1522.0000743865967, 0,  0, 180
-337.51440048217773,-417.5536632537842,1517.0000791549683, 0,  0, 180
-346.8751013278961,-414.5258963108063,1506.00004196167, 0,  0, 180
-358.2068383693695,-413.97541761398315,1504.0000677108765, 0,  0, 180
-369.2612051963806,-413.1496548652649,1501.0000467300415, 0,  0, 180
-379.50700521469116,-411.49818897247314,1495.0001239776611, 0,  0, 180
-387.8268599510193,-407.9199433326721,1482.0001125335693, 0,  0, 180
-399.98576045036316,-408.47042202949524,1484.0000867843628, 0,  0, 180
-415.2272045612335,-412.04866766929626,1497.0000982284546, 0,  0, 180
-428.96121740341187,-413.97541761398315,1504.0000677108765, 0,  0, 180
-439.87444043159485,-413.1496548652649,1501.0000467300415, 0,  0, 180
-453.7495970726013,-415.0764048099518,1508.0000162124634, 0,  0, 180
-462.7947509288788,-412.5991761684418,1499.000072479248, 0,  0, 180
-758.4197521209717,-433.79339575767517,1576.0000944137573, 0,  0, 180
-726.76020860672,-409.02093052864075,1486.0000610351562, 0,  0, 180
-735.4300022125244,-407.3694050312042,1480.0000190734863, 0,  0, 180
-749.0532398223877,-408.47042202949524,1484.0000867843628, 0,  0, 180
-766.3273811340332,-411.49818897247314,1495.0001239776611, 0,  0, 180
-778.0491709709167,-411.49818897247314,1495.0001239776611, 0,  0, 180
-790.8275723457336,-412.04866766929626,1497.0000982284546, 0,  0, 180
-798.8122701644897,-410.12194752693176,1490.0001287460327, 0,  0, 180
-806.1432838439941,-407.9199433326721,1482.0001125335693, 0,  0, 180
-815.0041699409485,-406.54370188713074,1477.000117301941, 0,  0, 180
-829.3830752372742,-407.9199433326721,1482.0001125335693, 0,  0, 180
-843.272864818573,-409.02093052864075,1486.0000610351562, 0,  0, 180
-853.7735342979431,-408.47042202949524,1484.0000867843628, 0,  0, 180
-863.0764484405518,-407.3694050312042,1480.0000190734863, 0,  0, 180
-865.8156394958496,-403.2406806945801,1465.000033378601, 0,  0, 180
-865.9243583679199,-398.0109393596649,1446.000099182129, 0,  0, 180
