-800.0676035881042 ,-596.754252910614 ,1519.0000534057617, 0, 0, 180
-783.4877967834473 ,-593.2185649871826 ,1510.0001096725464, 0, 0, 180
-759.3837380409241 ,-583.7898850440979 ,1486.0000610351562, 0, 0, 180
-744.713306427002 ,-581.4327001571655 ,1480.0000190734863, 0, 0, 180
-733.109176158905 ,-581.4327001571655 ,1480.0000190734863, 0, 0, 180
-705.5837512016296 ,-577.8970122337341 ,1471.000075340271, 0, 0, 180
-699.2402076721191 ,-582.2184681892395 ,1482.0001125335693, 0, 0, 180
-702.9317021369934 ,-595.1828360557556 ,1515.0001049041748, 0, 0, 180
-712.0354771614075 ,-613.2544279098511 ,1561.000108718872, 0, 0, 180
-706.520676612854 ,-619.1473007202148 ,1576.0000944137573, 0, 0, 180
-682.2713017463684 ,-608.5400581359863 ,1549.0000247955322, 0, 0, 180
-666.2325263023376 ,-605.0043106079102 ,1540.000081062317, 0, 0, 180
-649.4852900505066 ,-600.6828546524048 ,1529.0000438690186, 0, 0, 180
-636.2460851669312 ,-599.504292011261 ,1526.0000228881836, 0, 0, 180
-627.1448731422424 ,-602.254331111908 ,1533.000111579895, 0, 0, 180
-613.520085811615 ,-600.6828546524048 ,1529.0000438690186, 0, 0, 180
-590.5160307884216 ,-589.6827578544617 ,1501.0000467300415, 0, 0, 180
-570.6501007080078 ,-581.4327001571655 ,1480.0000190734863, 0, 0, 180
-555.6462407112122 ,-577.8970122337341 ,1471.000075340271, 0, 0, 180
-537.0846390724182 ,-570.4326629638672 ,1452.0000219345093, 0, 0, 180
-498.73000383377075 ,-553.1468391418457 ,1408.000111579895, 0, 0, 180
-491.1540150642395 ,-557.0754408836365 ,1418.0001020431519, 0, 0, 180
-493.57712268829346 ,-572.7897882461548 ,1458.0000638961792, 0, 0, 180
-495.0422942638397 ,-588.1113409996033 ,1497.0000982284546, 0, 0, 180
-489.11604285240173 ,-595.1828360557556 ,1515.0001049041748, 0, 0, 180
-483.53761434555054 ,-603.0400395393372 ,1535.0000858306885, 0, 0, 180
-482.5601875782013 ,-617.1829700469971 ,1571.000099182129, 0, 0, 180
-468.74579787254333 ,-615.2186989784241 ,1566.0001039505005, 0, 0, 180
-437.3812675476074 ,-605.7900190353394 ,1542.0000553131104, 0, 0, 180
-419.7748303413391 ,-597.9328751564026 ,1522.0000743865967, 0, 0, 180
-402.21402049064636 ,-589.6827578544617 ,1501.0000467300415, 0, 0, 180
-392.26603507995605 ,-592.4327969551086 ,1508.0000162124634, 0, 0, 180
-382.71284103393555 ,-595.9685444831848 ,1517.0000791549683, 0, 0, 180
-374.2406964302063 ,-601.468563079834 ,1531.000018119812, 0, 0, 180
-366.0221993923187 ,-607.7543497085571 ,1547.0000505447388, 0, 0, 180
-356.18025064468384 ,-611.6829514503479 ,1557.0000410079956, 0, 0, 180
-342.86773204803467 ,-609.7186207771301 ,1552.0000457763672, 0, 0, 180
-329.63356375694275 ,-607.7543497085571 ,1547.0000505447388, 0, 0, 180
-315.6569004058838 ,-604.218602180481 ,1538.0001068115234, 0, 0, 180
-302.216112613678 ,-601.468563079834 ,1531.000018119812, 0, 0, 180
-288.50603103637695 ,-597.9328751564026 ,1522.0000743865967, 0, 0, 180
-277.84448862075806 ,-600.6828546524048 ,1529.0000438690186, 0, 0, 180
-269.3336009979248 ,-608.5400581359863 ,1549.0000247955322, 0, 0, 180
-256.8563222885132 ,-607.7543497085571 ,1547.0000505447388, 0, 0, 180
-242.82842874526978 ,-603.0400395393372 ,1535.0000858306885, 0, 0, 180
-229.43976521492004 ,-599.504292011261 ,1526.0000228881836, 0, 0, 180
-217.47489273548126 ,-599.504292011261 ,1526.0000228881836, 0, 0, 180
-204.9713134765625 ,-597.9328751564026 ,1522.0000743865967, 0, 0, 180
-191.00847840309143 ,-591.6470885276794 ,1506.00004196167, 0, 0, 180
-177.65352129936218 ,-586.5399241447449 ,1493.0000305175781, 0, 0, 180
-165.16932845115662 ,-583.7898850440979 ,1486.0000610351562, 0, 0, 180
-153.93130481243134 ,-585.3613615036011 ,1490.0001287460327, 0, 0, 180
-142.24867522716522 ,-585.3613615036011 ,1490.0001287460327, 0, 0, 180
-130.21554052829742 ,-583.7898850440979 ,1486.0000610351562, 0, 0, 180
-119.12277340888977 ,-586.5399241447449 ,1493.0000305175781, 0, 0, 180
-107.56053030490875 ,-587.3256325721741 ,1495.0001239776611, 0, 0, 180
-96.54385596513748 ,-591.6470885276794 ,1506.00004196167, 0, 0, 180
-85.86109429597855 ,-599.504292011261 ,1526.0000228881836, 0, 0, 180
-74.47730004787445 ,-604.218602180481 ,1538.0001068115234, 0, 0, 180
-62.78357654809952 ,-607.7543497085571 ,1547.0000505447388, 0, 0, 180
-50.19562691450119 ,-602.254331111908 ,1533.000111579895, 0, 0, 180
-37.27935254573822 ,-588.1113409996033 ,1497.0000982284546, 0, 0, 180
-27.5726281106472,-569.8285102844238,1480.0000190734863, 0,  0, 180
-39.81214761734009,-579.0689587593079,1504.0000677108765, 0,  0, 180
-52.83975601196289,-592.9296612739563,1540.000081062317, 0,  0, 180
-65.50455093383789,-598.3198881149292,1554.0000200271606, 0,  0, 180
-78.03893089294434,-601.0150909423828,1561.000108718872, 0,  0, 180
-89.75774794816971,-597.5498557090759,1552.0000457763672, 0,  0, 180
-111.00762337446213,-581.3791155815125,1510.0001096725464, 0,  0, 180
-121.95213884115219,-577.1438479423523,1499.000072479248, 0,  0, 180
-133.8837295770645,-577.9138803482056,1501.0000467300415, 0,  0, 180
-146.52593433856964,-581.3791155815125,1510.0001096725464, 0,  0, 180
-158.6800068616867,-582.5341939926147,1513.0001306533813, 0,  0, 180
-170.76840996742249,-583.3041667938232,1515.0001049041748, 0,  0, 180
-182.40593373775482,-582.5341939926147,1513.0001306533813, 0,  0, 180
-194.78249549865723,-584.0741991996765,1517.0000791549683, 0,  0, 180
-207.90298283100128,-587.5393748283386,1526.0000228881836, 0,  0, 180
-220.58828175067902,-589.4644856452942,1531.000018119812, 0,  0, 180
-233.2000583410263,-591.0045504570007,1535.0000858306885, 0,  0, 180
-247.1526712179184,-595.6248044967651,1547.0000505447388, 0,  0, 180
-260.4554295539856,-598.3198881149292,1554.0000200271606, 0,  0, 180
-273.51707220077515,-600.2449989318848,1559.000015258789, 0,  0, 180
-283.90786051750183,-596.3948369026184,1549.0000247955322, 0,  0, 180
-295.67086696624756,-595.6248044967651,1547.0000505447388, 0,  0, 180
-310.1879954338074,-600.2449989318848,1559.000015258789, 0,  0, 180
-325.92734694480896,-606.7903637886047,1576.0000944137573, 0,  0, 180
-334.63525772094727,-600.2449989318848,1559.000015258789, 0,  0, 180
-341.51920676231384,-591.0045504570007,1535.0000858306885, 0,  0, 180
-352.1726429462433,-588.6944532394409,1529.0000438690186, 0,  0, 180
-362.4939024448395,-585.9993100166321,1522.0000743865967, 0,  0, 180
-370.9832727909088,-580.6090235710144,1508.0000162124634, 0,  0, 180
-379.50700521469116,-575.6038427352905,1495.0001239776611, 0,  0, 180
-391.2288546562195,-575.6038427352905,1495.0001239776611, 0,  0, 180
-403.4896790981293,-576.373815536499,1497.0000982284546, 0,  0, 180
-419.6651875972748,-582.5341939926147,1513.0001306533813, 0,  0, 180
-439.79933857917786,-593.6996936798096,1542.0000553131104, 0,  0, 180
-450.7174789905548,-592.159628868103,1538.0001068115234, 0,  0, 180
-458.5639238357544,-586.7693424224854,1524.0000486373901, 0,  0, 180
-464.33842182159424,-579.0689587593079,1504.0000677108765, 0,  0, 180
-473.9148020744324,-576.373815536499,1497.0000982284546, 0,  0, 180
-483.38136076927185,-573.678731918335,1490.0001287460327, 0,  0, 180
-488.0865812301636,-565.5933022499084,1469.0001010894775, 0,  0, 180
-484.98034477233887,-549.0374565124512,1426.0001182556152, 0,  0, 180
-492.68174171447754,-545.18723487854,1416.0000085830688, 0,  0, 180
-505.91886043548584,-547.4973917007446,1422.0000505447388, 0,  0, 180
-526.5224575996399,-557.5078725814819,1448.0000734329224, 0,  0, 180
-544.1905856132507,-564.0531778335571,1465.000033378601, 0,  0, 180
-560.2288246154785,-568.6734914779663,1477.000117301941, 0,  0, 180
-574.5195150375366,-571.3685750961304,1484.0000867843628, 0,  0, 180
-617.5290942192078,-590.2345180511475,1533.000111579895, 0,  0, 180
-629.5488476753235,-590.2345180511475,1533.000111579895, 0,  0, 180
-637.8020644187927,-586.7693424224854,1524.0000486373901, 0,  0, 180
-666.4765477180481,-591.0045504570007,1535.0000858306885, 0,  0, 180
-678.5119771957397,-591.0045504570007,1535.0000858306885, 0,  0, 180
-699.0948915481567,-598.3198881149292,1554.0000200271606, 0,  0, 180
-719.0604209899902,-604.8652529716492,1571.000099182129, 0,  0, 180
-723.463773727417,-598.3198881149292,1554.0000200271606, 0,  0, 180
-720.4997539520264,-585.9993100166321,1522.0000743865967, 0,  0, 180
-716.071367263794,-572.9086399078369,1488.0000352859497, 0,  0, 180
-719.4241285324097,-566.3633346557617,1471.000075340271, 0,  0, 180
-725.9886860847473,-562.5131726264954,1461.0000848770142, 0,  0, 180
-735.9296083450317,-561.3580942153931,1458.0000638961792, 0,  0, 180
-757.1006417274475,-568.6734914779663,1477.000117301941, 0,  0, 180
-777.0082950592041,-574.8337507247925,1493.0000305175781, 0,  0, 180
-788.7144088745117,-574.8337507247925,1493.0000305175781, 0,  0, 180
-790.7705307006836,-567.9033994674683,1475.000023841858, 0,  0, 180
-801.2476563453674,-567.133367061615,1473.0000495910645, 0,  0, 180
-810.5897903442383,-565.5933022499084,1469.0001010894775, 0,  0, 180
-824.3463039398193,-567.133367061615,1473.0000495910645, 0,  0, 180
-837.0305895805359,-567.9033994674683,1475.000023841858, 0,  0, 180
-843.9931273460388,-564.8232698440552,1467.000126838684, 0,  0, 180
-853.1627655029297,-563.2831454277039,1463.0000591278076, 0,  0, 180
-864.6336793899536,-563.2831454277039,1463.0000591278076, 0,  0, 180
-874.9069571495056,-562.5131726264954,1461.0000848770142, 0,  0, 180
-890.0023102760315,-564.8232698440552,1467.000126838684, 0,  0, 180
-899.0463614463806,-563.2831454277039,1463.0000591278076, 0,  0, 180
-907.4054956436157,-561.3580942153931,1458.0000638961792, 0,  0, 180
-924.5091080665588,-564.8232698440552,1467.000126838684, 0,  0, 180
-934.7352385520935,-564.0531778335571,1465.000033378601, 0,  0, 180
-941.7006969451904,-561.3580942153931,1458.0000638961792, 0,  0, 180
-985.7343435287476,-573.678731918335,1490.0001287460327, 0,  0, 180
-997.4169731140137,-573.678731918335,1490.0001287460327, 0,  0, 180
-1003.6816596984863,-570.5985426902771,1482.0001125335693, 0,  0, 180
-1015.3014659881592,-570.5985426902771,1482.0001125335693, 0,  0, 180
-1023.4568119049072,-568.6734914779663,1477.000117301941, 0,  0, 180
-1030.8328866958618,-566.3633346557617,1471.000075340271, 0,  0, 180
-1040.9493446350098,-565.5933022499084,1469.0001010894775, 0,  0, 180
-1052.4672269821167,-565.5933022499084,1469.0001010894775, 0,  0, 180
-1059.63933467865,-563.2831454277039,1463.0000591278076, 0,  0, 180
-1057.1998357772827,-555.9678077697754,1444.0001249313354, 0,  0, 180
-1062.6020431518555,-552.8876781463623,1436.000108718872, 0,  0, 180
-1064.8874044418335,-548.2674241065979,1424.0000247955322, 0,  0, 180
-1059.4282150268555,-539.7970080375671,1402.000069618225, 0,  0, 180
-1095.2975749969482,-546.7273592948914,1420.0000762939453, 0,  0, 180
-1363.909125328064,-606.7903637886047,1576.0000944137573, 0,  0, 180
-1363.1670475006104,-601.0150909423828,1561.000108718872, 0,  0, 180
-1358.6653470993042,-593.6996936798096,1542.0000553131104, 0,  0, 180
-1338.753581047058,-579.8389911651611,1506.00004196167, 0,  0, 180
-1334.4194889068604,-572.9086399078369,1488.0000352859497, 0,  0, 180
-1352.4188995361328,-575.6038427352905,1495.0001239776611, 0,  0, 180
-1369.6155548095703,-577.9138803482056,1501.0000467300415, 0,  0, 180
-1369.4204092025757,-572.9086399078369,1488.0000352859497, 0,  0, 180
-1385.7280015945435,-574.8337507247925,1493.0000305175781, 0,  0, 180
-1394.626259803772,-573.678731918335,1490.0001287460327, 0,  0, 180
-1398.7581729888916,-570.5985426902771,1482.0001125335693, 0,  0, 180
-1399.9097347259521,-566.3633346557617,1471.000075340271, 0,  0, 180
-1401.8481969833374,-562.5131726264954,1461.0000848770142, 0,  0, 180
-1387.1848583221436,-552.1175861358643,1434.000015258789, 0,  0, 180
-1396.4780569076538,-551.347553730011,1432.0000410079956, 0,  0, 180
-1415.5702590942383,-554.4277429580688,1440.000057220459, 0,  0, 180
-1437.8488063812256 ,-552.5665879249573 ,1465.000033378601, 0, 0, 180
-1419.5468425750732 ,-549.9263405799866 ,1458.0000638961792, 0, 0, 180
-1412.943959236145 ,-551.8122315406799 ,1463.0000591278076, 0, 0, 180
-1409.1366529464722 ,-554.8296570777893 ,1471.000075340271, 0, 0, 180
-1397.602915763855 ,-554.8296570777893 ,1471.000075340271, 0, 0, 180
-1382.3002576828003 ,-553.3210039138794 ,1467.000126838684, 0, 0, 180
-1370.7979917526245 ,-553.3210039138794 ,1467.000126838684, 0, 0, 180
-1355.5892705917358 ,-551.8122315406799 ,1463.0000591278076, 0, 0, 180
-1345.9559679031372 ,-552.5665879249573 ,1465.000033378601, 0, 0, 180
-1348.2683897018433 ,-563.1275773048401 ,1493.0000305175781, 0, 0, 180
-1359.8378896713257 ,-572.9342103004456 ,1519.0000534057617, 0, 0, 180
-1372.7744817733765 ,-583.4952592849731 ,1547.0000505447388, 0, 0, 180
-1358.8858842849731 ,-582.7409029006958 ,1545.0000762939453, 0, 0, 180
-1344.1569805145264 ,-581.6093683242798 ,1542.0000553131104, 0, 0, 180
-1348.4798669815063 ,-588.7757539749146 ,1561.000108718872, 0, 0, 180
-1036.9832515716553 ,-513.3400559425354 ,1361.0000610351562, 0, 0, 180
-1039.8856401443481 ,-520.1292634010315 ,1379.0000677108765, 0, 0, 180
-1064.1469955444336 ,-537.8566384315491 ,1426.0001182556152, 0, 0, 180
-1067.7342414855957 ,-545.4002022743225 ,1446.000099182129, 0, 0, 180
-1053.4743070602417 ,-543.8914895057678 ,1442.0000314712524, 0, 0, 180
-1046.5043783187866 ,-546.1545586585999 ,1448.0000734329224, 0, 0, 180
-1045.8742380142212 ,-551.8122315406799 ,1463.0000591278076, 0, 0, 180
-1037.231683731079 ,-553.3210039138794 ,1467.000126838684, 0, 0, 180
-1031.3228368759155 ,-556.338369846344 ,1475.000023841858, 0, 0, 180
-1023.2146978378296 ,-558.2242608070374 ,1480.0000190734863, 0, 0, 180
-999.9906420707703 ,-551.8122315406799 ,1463.0000591278076, 0, 0, 180
-988.5196685791016 ,-551.8122315406799 ,1463.0000591278076, 0, 0, 180
-985.0627779960632 ,-556.338369846344 ,1475.000023841858, 0, 0, 180
-970.8577990531921 ,-554.8296570777893 ,1471.000075340271, 0, 0, 180
-958.0198526382446 ,-554.075300693512 ,1469.0001010894775, 0, 0, 180
-950.3677487373352 ,-556.338369846344 ,1475.000023841858, 0, 0, 180
-943.2581067085266 ,-558.9786767959595 ,1482.0001125335693, 0, 0, 180
-928.4949898719788 ,-557.0927858352661 ,1477.000117301941, 0, 0, 180
-915.6726598739624 ,-556.338369846344 ,1475.000023841858, 0, 0, 180
-909.6242785453796 ,-559.732973575592 ,1484.0000867843628, 0, 0, 180
-900.4091620445251 ,-561.2416863441467 ,1488.0000352859497, 0, 0, 180
-882.1722865104675 ,-557.0927858352661 ,1477.000117301941, 0, 0, 180
-865.8760786056519 ,-554.075300693512 ,1469.0001010894775, 0, 0, 180
-857.8476309776306 ,-556.338369846344 ,1475.000023841858, 0, 0, 180
-852.5938987731934 ,-560.4873299598694 ,1486.0000610351562, 0, 0, 180
-844.9040055274963 ,-563.1275773048401 ,1493.0000305175781, 0, 0, 180
-830.4075002670288 ,-561.2416863441467 ,1488.0000352859497, 0, 0, 180
-811.5875720977783 ,-556.338369846344 ,1475.000023841858, 0, 0, 180
-797.8529930114746 ,-554.8296570777893 ,1471.000075340271, 0, 0, 180
-789.526641368866 ,-557.0927858352661 ,1477.000117301941, 0, 0, 180
-784.7931385040283 ,-561.9961023330688 ,1490.0001287460327, 0, 0, 180
-766.3652300834656 ,-557.0927858352661 ,1477.000117301941, 0, 0, 180
-747.6301193237305 ,-551.8122315406799 ,1463.0000591278076, 0, 0, 180
-733.6432933807373 ,-549.9263405799866 ,1458.0000638961792, 0, 0, 180
-728.6511063575745 ,-554.8296570777893 ,1471.000075340271, 0, 0, 180
-724.4299650192261 ,-560.4873299598694 ,1486.0000610351562, 0, 0, 180
-734.3634963035583 ,-577.4603486061096 ,1531.000018119812, 0, 0, 180
-740.2887344360352 ,-591.7931795120239 ,1569.0001249313354, 0, 0, 180
-721.0268974304199 ,-586.1354470252991 ,1554.0000200271606, 0, 0, 180
-700.1758217811584 ,-578.9691209793091 ,1535.0000858306885, 0, 0, 180
-686.3471269607544 ,-577.4603486061096 ,1531.000018119812, 0, 0, 180
-568.1114792823792 ,-567.2765374183655 ,1504.0000677108765, 0, 0, 180
-552.9900789260864 ,-563.8819932937622 ,1495.0001239776611, 0, 0, 180
-532.5790047645569 ,-554.8296570777893 ,1471.000075340271, 0, 0, 180
-511.4816427230835 ,-544.6458458900452 ,1444.0001249313354, 0, 0, 180
-502.23785638809204 ,-546.9089150428772 ,1450.0000476837158, 0, 0, 180
-496.6239035129547 ,-553.3210039138794 ,1467.000126838684, 0, 0, 180
-484.4602048397064 ,-552.5665879249573 ,1465.000033378601, 0, 0, 180
-474.2650091648102 ,-554.075300693512 ,1469.0001010894775, 0, 0, 180
-464.00707960128784 ,-555.5840134620667 ,1473.0000495910645, 0, 0, 180
-456.4509093761444 ,-560.4873299598694 ,1486.0000610351562, 0, 0, 180
-454.67743277549744 ,-572.9342103004456 ,1519.0000534057617, 0, 0, 180
-453.843891620636 ,-587.2670412063599 ,1557.0000410079956, 0, 0, 180
-442.7705407142639 ,-588.7757539749146 ,1561.000108718872, 0, 0, 180
-423.36028814315796 ,-578.9691209793091 ,1535.0000858306885, 0, 0, 180
-408.3772003650665 ,-574.8201012611389 ,1524.0000486373901, 0, 0, 180
-395.12741565704346 ,-572.9342103004456 ,1519.0000534057617, 0, 0, 180
-381.7037343978882 ,-570.6712007522583 ,1513.0001306533813, 0, 0, 180
-370.3296482563019 ,-571.4255571365356 ,1515.0001049041748, 0, 0, 180
-358.4509789943695 ,-571.4255571365356 ,1515.0001049041748, 0, 0, 180
-347.48736023902893 ,-572.9342103004456 ,1519.0000534057617, 0, 0, 180
-339.77487683296204 ,-580.1006555557251 ,1538.0001068115234, 0, 0, 180
-335.173636674881 ,-593.3018922805786 ,1573.0000734329224, 0, 0, 180
-322.0192790031433 ,-591.7931795120239 ,1569.0001249313354, 0, 0, 180
-304.97971177101135 ,-582.7409029006958 ,1545.0000762939453, 0, 0, 180
-294.19273138046265 ,-585.3811502456665 ,1552.0000457763672, 0, 0, 180
-282.02396631240845 ,-585.3811502456665 ,1552.0000457763672, 0, 0, 180
-271.0723578929901 ,-588.0213379859924 ,1559.000015258789, 0, 0, 180
-258.84872674942017 ,-588.0213379859924 ,1559.000015258789, 0, 0, 180
-246.30869925022125 ,-587.2670412063599 ,1557.0000410079956, 0, 0, 180
-232.89790749549866 ,-584.2495560646057 ,1549.0000247955322, 0, 0, 180
-220.467671751976 ,-583.4952592849731 ,1547.0000505447388, 0, 0, 180
-207.39541947841644 ,-580.8550119400024 ,1540.000081062317, 0, 0, 180
-182.1751743555069 ,-577.4603486061096 ,1531.000018119812, 0, 0, 180
-169.9487864971161 ,-576.7059922218323 ,1529.0000438690186, 0, 0, 180
-155.99748492240906 ,-569.5396661758423 ,1510.0001096725464, 0, 0, 180
-143.10789108276367 ,-565.3906464576721 ,1499.000072479248, 0, 0, 180
-131.52995705604553 ,-566.1450028419495 ,1501.0000467300415, 0, 0, 180
-120.87810784578323 ,-571.4255571365356 ,1515.0001049041748, 0, 0, 180
-110.79813539981842 ,-580.8550119400024 ,1540.000081062317, 0, 0, 180
-98.85168075561523 ,-581.6093683242798 ,1542.0000553131104, 0, 0, 180
-86.53628081083298 ,-580.1006555557251 ,1538.0001068115234, 0, 0, 180
-74.23517853021622 ,-578.2147645950317 ,1533.000111579895, 0, 0, 180
-61.647217720746994 ,-572.9342103004456 ,1519.0000534057617, 0, 0, 180
-49.311552196741104 ,-568.0308938026428 ,1506.00004196167, 0, 0, 180
-36.85600310564041 ,-558.2242608070374 ,1480.0000190734863, 0, 0, 180
-27.40495838224888,-543.2960391044617,1471.000075340271, 0,  0, 180
-39.28273171186447,-548.0974316596985,1484.0000867843628, 0,  0, 180
-51.36436223983765,-552.8988242149353,1497.0000982284546, 0,  0, 180
-63.64985555410385,-557.7002763748169,1510.0001096725464, 0,  0, 180
-75.93923062086105,-561.0242486000061,1519.0000534057617, 0,  0, 180
-88.25407177209854,-563.6096000671387,1526.0000228881836, 0,  0, 180
-100.54732859134674,-565.4563307762146,1531.000018119812, 0,  0, 180
-111.52222752571106,-560.2856278419495,1517.0000791549683, 0,  0, 180
-121.05722725391388,-549.5747923851013,1488.0000352859497, 0,  0, 180
-133.17015767097473,-551.4214634895325,1493.0000305175781, 0,  0, 180
-145.45853435993195,-553.6375045776367,1499.000072479248, 0,  0, 180
-157.73610770702362,-555.4842352867126,1504.0000677108765, 0,  0, 180
-170.20481824874878,-557.7002763748169,1510.0001096725464, 0,  0, 180
-181.8031370639801,-556.9615364074707,1508.0000162124634, 0,  0, 180
-193.62688064575195,-556.9615364074707,1508.0000162124634, 0,  0, 180
-207.90298283100128,-563.6096000671387,1526.0000228881836, 0,  0, 180
-221.5968668460846,-568.0416822433472,1538.0001068115234, 0,  0, 180
-233.2000583410263,-566.9336915016174,1535.0000858306885, 0,  0, 180
-244.596466422081,-565.4563307762146,1531.000018119812, 0,  0, 180
-256.600558757782,-565.4563307762146,1531.000018119812, 0,  0, 180
-268.9555585384369,-566.195011138916,1533.000111579895, 0,  0, 180
-280.975341796875,-566.195011138916,1533.000111579895, 0,  0, 180
-294.33298110961914,-568.7803626060486,1540.000081062317, 0,  0, 180
-303.62212657928467,-563.6096000671387,1526.0000228881836, 0,  0, 180
-317.4482583999634,-566.9336915016174,1535.0000858306885, 0,  0, 180
-330.12768626213074,-568.0416822433472,1538.0001068115234, 0,  0, 180
-339.5167887210846,-563.6096000671387,1526.0000228881836, 0,  0, 180
-352.1726429462433,-564.7176504135132,1529.0000438690186, 0,  0, 180
-366.78093671798706,-568.7803626060486,1540.000081062317, 0,  0, 180
-382.2997510433197,-573.9510655403137,1554.0000200271606, 0,  0, 180
-398.7996578216553,-580.2298784255981,1571.000099182129, 0,  0, 180
-408.50046277046204,-576.5364766120911,1561.000108718872, 0,  0, 180
-416.42722487449646,-570.6270337104797,1545.0000762939453, 0,  0, 180
-431.03742599487305,-573.9510655403137,1554.0000200271606, 0,  0, 180
-446.0740387439728,-577.6445269584656,1564.000129699707, 0,  0, 180
-454.8202157020569,-573.2124447822571,1552.0000457763672, 0,  0, 180
-453.1477987766266,-556.2228560447693,1506.00004196167, 0,  0, 180
-454.15014028549194,-543.2960391044617,1471.000075340271, 0,  0, 180
-459.6688449382782,-536.2786054611206,1452.0000219345093, 0,  0, 180
-469.1070020198822,-534.0626239776611,1446.000099182129, 0,  0, 180
-483.76721143722534,-537.7559661865234,1456.0000896453857, 0,  0, 180
-498.9243745803833,-541.8187379837036,1467.000126838684, 0,  0, 180
-504.51165437698364,-535.5399250984192,1450.0000476837158, 0,  0, 180
-518.7269449234009,-538.4946465492249,1458.0000638961792, 0,  0, 180
-541.7945384979248,-550.3134727478027,1490.0001287460327, 0,  0, 180
-560.1633787155151,-556.9615364074707,1508.0000162124634, 0,  0, 180
-700.7520794868469,-565.4563307762146,1531.000018119812, 0,  0, 180
-720.2049493789673,-571.3657140731812,1547.0000505447388, 0,  0, 180
-741.3289546966553,-578.3831477165222,1566.0001039505005, 0,  0, 180
-749.276340007782,-575.0591158866882,1557.0000410079956, 0,  0, 180
-748.7683892250061,-565.4563307762146,1531.000018119812, 0,  0, 180
-748.3497262001038,-556.2228560447693,1506.00004196167, 0,  0, 180
-740.4724359512329,-541.8187379837036,1467.000126838684, 0,  0, 180
-750.949501991272,-541.0799980163574,1465.000033378601, 0,  0, 180
-766.5995955467224,-544.0347194671631,1473.0000495910645, 0,  0, 180
-780.2620530128479,-545.5120801925659,1477.000117301941, 0,  0, 180
-787.5538468360901,-542.557418346405,1469.0001010894775, 0,  0, 180
-794.7201728820801,-539.6026968955994,1461.0000848770142, 0,  0, 180
-808.3825707435608,-541.0799980163574,1465.000033378601, 0,  0, 180
-822.1077919006348,-542.557418346405,1469.0001010894775, 0,  0, 180
-834.7607254981995,-543.2960391044617,1471.000075340271, 0,  0, 180
-851.4721989631653,-546.6200709342957,1480.0000190734863, 0,  0, 180
-863.0764484405518,-546.6200709342957,1480.0000190734863, 0,  0, 180
-877.044677734375,-548.0974316596985,1484.0000867843628, 0,  0, 180
-896.4652419090271,-552.8988242149353,1497.0000982284546, 0,  0, 180
-913.662850856781,-556.2228560447693,1506.00004196167, 0,  0, 180
-921.1692214012146,-553.6375045776367,1499.000072479248, 0,  0, 180
-927.321195602417,-550.3134727478027,1490.0001287460327, 0,  0, 180
-932.7017068862915,-546.6200709342957,1480.0000190734863, 0,  0, 180
-944.3058967590332,-546.6200709342957,1480.0000190734863, 0,  0, 180
-952.6807069778442,-544.7733998298645,1475.000023841858, 0,  0, 180
-955.0936222076416,-539.6026968955994,1461.0000848770142, 0,  0, 180
-969.1951274871826,-541.0799980163574,1465.000033378601, 0,  0, 180
-978.0041575431824,-539.6026968955994,1461.0000848770142, 0,  0, 180
-973.8826751708984,-531.1079025268555,1438.0000829696655, 0,  0, 180
-989.2681837081909,-533.3239436149597,1444.0001249313354, 0,  0, 180
-1013.7556791305542,-540.3413772583008,1463.0000591278076, 0,  0, 180
-1020.321249961853,-537.7559661865234,1456.0000896453857, 0,  0, 180
-1028.9028882980347,-536.2786054611206,1452.0000219345093, 0,  0, 180
-1041.7203903198242,-537.0173454284668,1454.0001153945923, 0,  0, 180
-1044.4291830062866,-532.5852632522583,1442.0000314712524, 0,  0, 180
-1049.878478050232,-529.6305418014526,1434.000015258789, 0,  0, 180
-1040.2095317840576,-513.7490034103394,1391.0000324249268, 0,  0, 180
-1028.4463167190552,-502.6688575744629,1361.0000610351562, 0,  0, 180
-1324.743390083313,-560.2856278419495,1517.0000791549683, 0,  0, 180
-1347.2110033035278,-564.7176504135132,1529.0000438690186, 0,  0, 180
-1362.7551794052124,-566.195011138916,1533.000111579895, 0,  0, 180
-1352.3552417755127,-556.9615364074707,1508.0000162124634, 0,  0, 180
-1346.0865020751953,-549.5747923851013,1488.0000352859497, 0,  0, 180
-1342.2415256500244,-543.2960391044617,1471.000075340271, 0,  0, 180
-1332.6079845428467,-534.8013043403625,1448.0000734329224, 0,  0, 180
-1340.248703956604,-533.3239436149597,1444.0001249313354, 0,  0, 180
-1357.1865558624268,-535.5399250984192,1450.0000476837158, 0,  0, 180
-1364.780306816101,-534.0626239776611,1446.000099182129, 0,  0, 180
-1390.3930187225342,-539.6026968955994,1461.0000848770142, 0,  0, 180
-1413.3623838424683,-544.0347194671631,1473.0000495910645, 0,  0, 180
-1424.9117374420166,-544.0347194671631,1473.0000495910645, 0,  0, 180
-1419.8827743530273,-537.7559661865234,1456.0000896453857, 0,  0, 180
-1415.5702590942383,-531.8465828895569,1440.000057220459, 0,  0, 180
-1463.1649255752563 ,-547.6682782173157 ,1515.0001049041748, 0, 0, 180
-1414.884328842163 ,-533.9313745498657 ,1477.000117301941, 0, 0, 180
-1383.351445198059 ,-526.3399481773376 ,1456.0000896453857, 0, 0, 180
-1364.3972873687744 ,-523.4479904174805 ,1448.0000734329224, 0, 0, 180
-1354.9127578735352 ,-524.1709351539612 ,1450.0000476837158, 0, 0, 180
-1349.1032123565674 ,-526.3399481773376 ,1456.0000896453857, 0, 0, 180
-1349.6309518814087 ,-531.0394167900085 ,1469.0001010894775, 0, 0, 180
-1343.5783386230469 ,-533.2083702087402 ,1475.000023841858, 0, 0, 180
-1332.0132493972778 ,-533.2083702087402 ,1475.000023841858, 0, 0, 180
-1332.0860862731934 ,-537.9078388214111 ,1488.0000352859497, 0, 0, 180
-1331.955075263977 ,-542.607307434082 ,1501.0000467300415, 0, 0, 180
-1332.4997425079346 ,-547.6682782173157 ,1515.0001049041748, 0, 0, 180
-1057.3965311050415 ,-517.6640152931213 ,1432.0000410079956, 0, 0, 180
-1054.9354553222656 ,-522.0019817352295 ,1444.0001249313354, 0, 0, 180
-1050.8407354354858 ,-525.6169438362122 ,1454.0001153945923, 0, 0, 180
-1040.8700704574585 ,-526.3399481773376 ,1456.0000896453857, 0, 0, 180
-1030.8681726455688 ,-527.0629525184631 ,1458.0000638961792, 0, 0, 180
-1024.3308544158936 ,-529.5934081077576 ,1465.000033378601, 0, 0, 180
-1012.8442049026489 ,-529.5934081077576 ,1465.000033378601, 0, 0, 180
-989.7378087043762 ,-523.4479904174805 ,1448.0000734329224, 0, 0, 180
-975.6817817687988 ,-522.0019817352295 ,1444.0001249313354, 0, 0, 180
-973.7095236778259 ,-527.0629525184631 ,1458.0000638961792, 0, 0, 180
-966.8977856636047 ,-529.5934081077576 ,1465.000033378601, 0, 0, 180
-958.0198526382446 ,-531.0394167900085 ,1469.0001010894775, 0, 0, 180
-964.5427465438843 ,-541.1613583564758 ,1497.0000982284546, 0, 0, 180
-968.717098236084 ,-550.1987338066101 ,1522.0000743865967, 0, 0, 180
-942.3249959945679 ,-541.8843030929565 ,1499.000072479248, 0, 0, 180
-920.0182557106018 ,-535.7388854026794 ,1482.0001125335693, 0, 0, 180
-915.1408076286316 ,-539.7153496742249 ,1493.0000305175781, 0, 0, 180
-916.7472720146179 ,-547.6682782173157 ,1515.0001049041748, 0, 0, 180
-904.8686623573303 ,-547.6682782173157 ,1515.0001049041748, 0, 0, 180
-887.6850605010986 ,-544.4148182868958 ,1506.00004196167, 0, 0, 180
-869.4795370101929 ,-540.4383540153503 ,1495.0001239776611, 0, 0, 180
-850.2989411354065 ,-535.7388854026794 ,1482.0001125335693, 0, 0, 180
-827.9266953468323 ,-528.8704037666321 ,1463.0000591278076, 0, 0, 180
-809.2008233070374 ,-524.1709351539612 ,1450.0000476837158, 0, 0, 180
-798.9322543144226 ,-524.8939394950867 ,1452.0000219345093, 0, 0, 180
-792.4291491508484 ,-528.1474590301514 ,1461.0000848770142, 0, 0, 180
-783.1120491027832 ,-529.5934081077576 ,1465.000033378601, 0, 0, 180
-774.7856974601746 ,-531.762421131134 ,1471.000075340271, 0, 0, 180
-765.3274536132812 ,-533.2083702087402 ,1475.000023841858, 0, 0, 180
-754.7845244407654 ,-533.9313745498657 ,1477.000117301941, 0, 0, 180
-749.74524974823 ,-538.6308431625366 ,1490.0001287460327, 0, 0, 180
-757.381021976471 ,-552.7292490005493 ,1529.0000438690186, 0, 0, 180
-753.192663192749 ,-558.5131645202637 ,1545.0000762939453, 0, 0, 180
-746.8347549438477 ,-562.8511309623718 ,1557.0000410079956, 0, 0, 180
-740.2887344360352 ,-567.1891570091248 ,1569.0001249313354, 0, 0, 180
-538.7338399887085 ,-537.9078388214111 ,1488.0000352859497, 0, 0, 180
-518.9200639724731 ,-529.5934081077576 ,1465.000033378601, 0, 0, 180
-501.54513120651245 ,-523.4479904174805 ,1448.0000734329224, 0, 0, 180
-481.4840257167816 ,-526.3399481773376 ,1456.0000896453857, 0, 0, 180
-472.3278880119324 ,-528.8704037666321 ,1463.0000591278076, 0, 0, 180
-464.6371006965637 ,-533.2083702087402 ,1475.000023841858, 0, 0, 180
-456.4509093761444 ,-537.1848344802856 ,1486.0000610351562, 0, 0, 180
-451.9835114479065 ,-545.8608269691467 ,1510.0001096725464, 0, 0, 180
-449.4715929031372 ,-557.4287176132202 ,1542.0000553131104, 0, 0, 180
-440.2177035808563 ,-561.0436797142029 ,1552.0000457763672, 0, 0, 180
-426.6699254512787 ,-559.2361688613892 ,1547.0000505447388, 0, 0, 180
-415.07628560066223 ,-559.9591732025146 ,1549.0000247955322, 0, 0, 180
-384.0183913707733 ,-567.9121017456055 ,1571.000099182129, 0, 0, 180
-365.5490279197693 ,-558.5131645202637 ,1545.0000762939453, 0, 0, 180
-350.23248195648193 ,-553.45219373703 ,1531.000018119812, 0, 0, 180
-334.25188064575195 ,-546.9452738761902 ,1513.0001306533813, 0, 0, 180
-323.2412040233612 ,-548.3912825584412 ,1517.0000791549683, 0, 0, 180
-311.757355928421 ,-549.1142272949219 ,1519.0000534057617, 0, 0, 180
-299.8473644256592 ,-549.1142272949219 ,1519.0000534057617, 0, 0, 180
-290.59115052223206 ,-554.1752576828003 ,1533.000111579895, 0, 0, 180
-277.29934453964233 ,-551.6447424888611 ,1526.0000228881836, 0, 0, 180
-263.76959681510925 ,-548.3912825584412 ,1517.0000791549683, 0, 0, 180
-250.7130205631256 ,-545.8608269691467 ,1510.0001096725464, 0, 0, 180
-239.3481582403183 ,-546.9452738761902 ,1513.0001306533813, 0, 0, 180
-228.83836925029755 ,-550.1987338066101 ,1522.0000743865967, 0, 0, 180
-217.18987822532654 ,-550.9217381477356 ,1524.0000486373901, 0, 0, 180
-204.02862131595612 ,-547.6682782173157 ,1515.0001049041748, 0, 0, 180
-190.75481593608856 ,-543.6918139457703 ,1504.0000677108765, 0, 0, 180
-178.96242439746857 ,-543.6918139457703 ,1504.0000677108765, 0, 0, 180
-167.17003285884857 ,-543.6918139457703 ,1504.0000677108765, 0, 0, 180
-153.51805090904236 ,-537.1848344802856 ,1486.0000610351562, 0, 0, 180
-141.67585968971252 ,-536.4618897438049 ,1484.0000867843628, 0, 0, 180
-129.42688167095184 ,-533.9313745498657 ,1477.000117301941, 0, 0, 180
-117.20787733793259 ,-531.0394167900085 ,1469.0001010894775, 0, 0, 180
-106.12158477306366 ,-533.2083702087402 ,1475.000023841858, 0, 0, 180
-96.22332453727722 ,-542.607307434082 ,1501.0000467300415, 0, 0, 180
-84.8483145236969 ,-545.1377630233765 ,1508.0000162124634, 0, 0, 180
-73.12140613794327 ,-545.8608269691467 ,1510.0001096725464, 0, 0, 180
-61.20079383254051 ,-545.1377630233765 ,1508.0000162124634, 0, 0, 180
-49.60624501109123 ,-547.6682782173157 ,1515.0001049041748, 0, 0, 180
-37.10503503680229 ,-538.6308431625366 ,1490.0001287460327, 0, 0, 180
-25.029979646205902 ,-530.316412448883 ,1467.000126838684, 0, 0, 180
-27.5726281106472,-523.4116315841675,1480.0000190734863, 0,  0, 180
-40.15626758337021,-536.4969372749329,1517.0000791549683, 0,  0, 180
-52.66819894313812,-542.8627729415894,1535.0000858306885, 0,  0, 180
-63.64985555410385,-534.0213775634766,1510.0001096725464, 0,  0, 180
-74.93937015533447,-530.1311016082764,1499.000072479248, 0,  0, 180
-86.98173612356186,-531.8993926048279,1504.0000677108765, 0,  0, 180
-132.54578411579132,-525.5335569381714,1486.0000610351562, 0,  0, 180
-143.32371950149536,-522.3506689071655,1477.000117301941, 0,  0, 180
-155.63856065273285,-524.8262882232666,1484.0000867843628, 0,  0, 180
-169.97937858104706,-533.3139896392822,1508.0000162124634, 0,  0, 180
-180.71810901165009,-530.1311016082764,1499.000072479248, 0,  0, 180
-190.54530560970306,-524.8262882232666,1484.0000867843628, 0,  0, 180
-202.7258425951004,-526.240885257721,1488.0000352859497, 0,  0, 180
-215.40138125419617,-528.716504573822,1495.0001239776611, 0,  0, 180
-227.42703557014465,-529.4238328933716,1497.0000982284546, 0,  0, 180
-238.52548003196716,-528.0091762542725,1493.0000305175781, 0,  0, 180
-252.07528471946716,-531.8993926048279,1504.0000677108765, 0,  0, 180
-267.37654209136963,-538.9724969863892,1524.0000486373901, 0,  0, 180
-279.69232201576233,-539.6798253059387,1526.0000228881836, 0,  0, 180
-290.3193533420563,-537.2042655944824,1519.0000534057617, 0,  0, 180
-300.04072189331055,-533.3139896392822,1508.0000162124634, 0,  0, 180
-311.03724241256714,-531.8993926048279,1504.0000677108765, 0,  0, 180
-322.8296637535095,-531.8993926048279,1504.0000677108765, 0,  0, 180
-337.06942200660706,-535.7896089553833,1515.0001049041748, 0,  0, 180
-353.0939817428589,-542.1554446220398,1533.000111579895, 0,  0, 180
-365.113765001297,-542.1554446220398,1533.000111579895, 0,  0, 180
-376.1495053768158,-540.7407879829407,1529.0000438690186, 0,  0, 180
-389.1533315181732,-542.1554446220398,1533.000111579895, 0,  0, 180
-400.1263380050659,-540.7407879829407,1529.0000438690186, 0,  0, 180
-412.1147096157074,-540.7407879829407,1529.0000438690186, 0,  0, 180
-427.1542429924011,-544.6310639381409,1540.000081062317, 0,  0, 180
-440.6549632549286,-546.3992953300476,1545.0000762939453, 0,  0, 180
-449.252188205719,-542.1554446220398,1533.000111579895, 0,  0, 180
-453.7495970726013,-533.3139896392822,1508.0000162124634, 0,  0, 180
-457.54626393318176,-524.118959903717,1482.0001125335693, 0,  0, 180
-467.5832688808441,-522.3506689071655,1477.000117301941, 0,  0, 180
-477.217435836792,-520.2287435531616,1471.000075340271, 0,  0, 180
-487.42207884788513,-518.8141465187073,1467.000126838684, 0,  0, 180
-497.5639581680298,-517.3994898796082,1463.0000591278076, 0,  0, 180
-511.12252473831177,-519.5214152336121,1469.0001010894775, 0,  0, 180
-737.0684146881104,-550.6432056427002,1557.0000410079956, 0,  0, 180
-741.0954236984253,-544.6310639381409,1540.000081062317, 0,  0, 180
-749.7466206550598,-542.1554446220398,1533.000111579895, 0,  0, 180
-757.2941184043884,-538.9724969863892,1524.0000486373901, 0,  0, 180
-757.6339840888977,-530.8384299278259,1501.0000467300415, 0,  0, 180
-767.3525214195251,-529.4238328933716,1497.0000982284546, 0,  0, 180
-778.0491709709167,-528.716504573822,1495.0001239776611, 0,  0, 180
-785.0165367126465,-525.5335569381714,1486.0000610351562, 0,  0, 180
-794.5233583450317,-524.118959903717,1482.0001125335693, 0,  0, 180
-805.0553202629089,-523.4116315841675,1480.0000190734863, 0,  0, 180
-813.9005303382874,-521.643340587616,1475.000023841858, 0,  0, 180
-834.7607254981995,-520.2287435531616,1471.000075340271, 0,  0, 180
-860.1020574569702,-528.716504573822,1495.0001239776611, 0,  0, 180
-878.2386183738708,-532.6067209243774,1506.00004196167, 0,  0, 180
-891.2286758422852,-533.3139896392822,1508.0000162124634, 0,  0, 180
-901.8547534942627,-532.6067209243774,1506.00004196167, 0,  0, 180
-908.2027673721313,-529.4238328933716,1497.0000982284546, 0,  0, 180
-903.9625525474548,-520.2287435531616,1471.000075340271, 0,  0, 180
-913.006842136383,-518.8141465187073,1467.000126838684, 0,  0, 180
-950.3474235534668,-533.3139896392822,1508.0000162124634, 0,  0, 180
-973.6559987068176,-539.6798253059387,1526.0000228881836, 0,  0, 180
-973.9949107170105,-533.3139896392822,1508.0000162124634, 0,  0, 180
-964.2457365989685,-521.643340587616,1475.000023841858, 0,  0, 180
-966.5488600730896,-516.6921615600586,1461.0000848770142, 0,  0, 180
-978.0041575431824,-516.6921615600586,1461.0000848770142, 0,  0, 180
-984.7186803817749,-514.2166018486023,1454.0001153945923, 0,  0, 180
-1005.0251483917236,-518.8141465187073,1467.000126838684, 0,  0, 180
-1023.4568119049072,-522.3506689071655,1477.000117301941, 0,  0, 180
-1030.8328866958618,-520.2287435531616,1471.000075340271, 0,  0, 180
-1038.1147861480713,-518.1067585945129,1465.000033378601, 0,  0, 180
-1046.7355251312256,-516.6921615600586,1461.0000848770142, 0,  0, 180
-1054.5693635940552,-514.9238705635071,1456.0000896453857, 0,  0, 180
-1065.9854412078857,-514.9238705635071,1456.0000896453857, 0,  0, 180
-1326.9455432891846,-532.6067209243774,1506.00004196167, 0,  0, 180
-1317.418932914734,-524.118959903717,1482.0001125335693, 0,  0, 180
-1322.7612972259521,-521.643340587616,1475.000023841858, 0,  0, 180
-1328.898549079895,-519.5214152336121,1469.0001010894775, 0,  0, 180
-1350.4536151885986,-523.4116315841675,1480.0000190734863, 0,  0, 180
-1384.1453790664673,-531.8993926048279,1504.0000677108765, 0,  0, 180
-1381.0871839523315,-526.240885257721,1488.0000352859497, 0,  0, 180
-1396.870493888855,-523.4116315841675,1480.0000190734863, 0,  0, 180
-1422.7498769760132,-528.716504573822,1495.0001239776611, 0,  0, 180
-1453.6619186401367,-535.7896089553833,1515.0001049041748, 0,  0, 180
-1491.6590452194214,-545.3383326530457,1542.0000553131104, 0,  0, 180
-1493.0223226547241,-541.4481163024902,1531.000018119812, 0,  0, 180
-1469.6372747421265,-528.716504573822,1495.0001239776611, 0,  0, 180
-1434.4958066940308 ,-501.43295526504517 ,1450.0000476837158, 0, 0, 180
-1430.978536605835 ,-504.19944524765015 ,1458.0000638961792, 0, 0, 180
-1434.1511726379395 ,-509.38671827316284 ,1473.0000495910645, 0, 0, 180
-1443.8492059707642 ,-516.9946551322937 ,1495.0001239776611, 0, 0, 180
-1451.2861967086792 ,-523.9109992980957 ,1515.0001049041748, 0, 0, 180
-1426.1060953140259 ,-519.0695524215698 ,1501.0000467300415, 0, 0, 180
-1402.087688446045 ,-514.5739316940308 ,1488.0000352859497, 0, 0, 180
-1388.551950454712 ,-513.8823390007019 ,1486.0000610351562, 0, 0, 180
-1395.4323530197144 ,-520.7986235618591 ,1506.00004196167, 0, 0, 180
-1387.2992992401123 ,-522.1819281578064 ,1510.0001096725464, 0, 0, 180
-1357.2418689727783 ,-515.2655839920044 ,1490.0001287460327, 0, 0, 180
-1336.5285396575928 ,-511.807382106781 ,1480.0000190734863, 0, 0, 180
-1320.4482793807983 ,-510.0783109664917 ,1475.000023841858, 0, 0, 180
-1326.63094997406 ,-516.9946551322937 ,1495.0001239776611, 0, 0, 180
-1047.9497909545898 ,-501.43295526504517 ,1450.0000476837158, 0, 0, 180
-1039.440393447876 ,-502.81620025634766 ,1454.0001153945923, 0, 0, 180
-1029.4541120529175 ,-503.5078525543213 ,1456.0000896453857, 0, 0, 180
-1016.6397094726562 ,-502.81620025634766 ,1454.0001153945923, 0, 0, 180
-1003.8565397262573 ,-502.124547958374 ,1452.0000219345093, 0, 0, 180
-987.003743648529 ,-499.35805797576904 ,1444.0001249313354, 0, 0, 180
-975.6817817687988 ,-499.35805797576904 ,1444.0001249313354, 0, 0, 180
-968.366801738739 ,-501.43295526504517 ,1450.0000476837158, 0, 0, 180
-953.0378580093384 ,-499.35805797576904 ,1444.0001249313354, 0, 0, 180
-950.8460760116577 ,-504.19944524765015 ,1458.0000638961792, 0, 0, 180
-954.8779726028442 ,-512.4990940093994 ,1482.0001125335693, 0, 0, 180
-945.8039402961731 ,-513.8823390007019 ,1486.0000610351562, 0, 0, 180
-925.9804487228394 ,-509.38671827316284 ,1473.0000495910645, 0, 0, 180
-905.1191806793213 ,-504.19944524765015 ,1458.0000638961792, 0, 0, 180
-897.9780673980713 ,-506.6201686859131 ,1465.000033378601, 0, 0, 180
-893.7529921531677 ,-510.76996326446533 ,1477.000117301941, 0, 0, 180
-886.3531947135925 ,-513.1906867027283 ,1484.0000867843628, 0, 0, 180
-877.0752549171448 ,-514.5739316940308 ,1488.0000352859497, 0, 0, 180
-868.3162927627563 ,-516.3030028343201 ,1493.0000305175781, 0, 0, 180
-849.1513729095459 ,-511.807382106781 ,1480.0000190734863, 0, 0, 180
-833.585798740387 ,-509.38671827316284 ,1473.0000495910645, 0, 0, 180
-834.3139886856079 ,-516.9946551322937 ,1495.0001239776611, 0, 0, 180
-824.7930407524109 ,-518.3779001235962 ,1499.000072479248, 0, 0, 180
-809.7854852676392 ,-516.3030028343201 ,1493.0000305175781, 0, 0, 180
-795.4066395759583 ,-514.5739316940308 ,1488.0000352859497, 0, 0, 180
-782.6862931251526 ,-513.8823390007019 ,1486.0000610351562, 0, 0, 180
-769.9972987174988 ,-513.1906867027283 ,1484.0000867843628, 0, 0, 180
-758.3616971969604 ,-513.1906867027283 ,1484.0000867843628, 0, 0, 180
-755.2801966667175 ,-519.0695524215698 ,1501.0000467300415, 0, 0, 180
-757.381021976471 ,-528.7523865699768 ,1529.0000438690186, 0, 0, 180
-746.3675737380981 ,-529.4439792633057 ,1531.000018119812, 0, 0, 180
-738.6804819107056 ,-532.5563549995422 ,1540.000081062317, 0, 0, 180
-484.4602048397064 ,-506.6201686859131 ,1465.000033378601, 0, 0, 180
-473.6193120479584 ,-507.3118209838867 ,1467.000126838684, 0, 0, 180
-464.6371006965637 ,-510.0783109664917 ,1475.000023841858, 0, 0, 180
-457.06525444984436 ,-514.5739316940308 ,1488.0000352859497, 0, 0, 180
-452.88148522377014 ,-523.2193470001221 ,1513.0001306533813, 0, 0, 180
-443.64190101623535 ,-526.3316631317139 ,1522.0000743865967, 0, 0, 180
-430.85741996765137 ,-525.2942442893982 ,1519.0000534057617, 0, 0, 180
-417.29259490966797 ,-523.2193470001221 ,1513.0001306533813, 0, 0, 180
-404.0897786617279 ,-521.490216255188 ,1508.0000162124634, 0, 0, 180
-391.74580574035645 ,-520.7986235618591 ,1506.00004196167, 0, 0, 180
-378.67632508277893 ,-519.0695524215698 ,1501.0000467300415, 0, 0, 180
-368.1296408176422 ,-520.7986235618591 ,1506.00004196167, 0, 0, 180
-359.39738154411316 ,-525.2942442893982 ,1519.0000534057617, 0, 0, 180
-350.6900370121002 ,-530.1356911659241 ,1533.000111579895, 0, 0, 180
-337.1238112449646 ,-527.7149081230164 ,1526.0000228881836, 0, 0, 180
-322.81506061553955 ,-523.9109992980957 ,1515.0001049041748, 0, 0, 180
-309.49971079826355 ,-521.490216255188 ,1508.0000162124634, 0, 0, 180
-296.2941825389862 ,-519.0695524215698 ,1501.0000467300415, 0, 0, 180
-285.0939929485321 ,-520.1069712638855 ,1504.0000677108765, 0, 0, 180
-275.66391229629517 ,-524.6025919914246 ,1517.0000791549683, 0, 0, 180
-265.33445715904236 ,-527.7149081230164 ,1526.0000228881836, 0, 0, 180
-249.218687415123 ,-519.0695524215698 ,1501.0000467300415, 0, 0, 180
-233.65315794944763 ,-510.76996326446533 ,1477.000117301941, 0, 0, 180
-221.1703211069107 ,-508.6950659751892 ,1471.000075340271, 0, 0, 180
-208.78159999847412 ,-506.6201686859131 ,1465.000033378601, 0, 0, 180
-197.29499518871307 ,-506.6201686859131 ,1465.000033378601, 0, 0, 180
-186.31570041179657 ,-508.00347328186035 ,1469.0001010894775, 0, 0, 180
-175.27370154857635 ,-509.38671827316284 ,1473.0000495910645, 0, 0, 180
-164.72472250461578 ,-512.4990940093994 ,1482.0001125335693, 0, 0, 180
-152.38164365291595 ,-510.0783109664917 ,1475.000023841858, 0, 0, 180
-140.43475687503815 ,-508.6950659751892 ,1471.000075340271, 0, 0, 180
-128.72585654258728 ,-508.00347328186035 ,1469.0001010894775, 0, 0, 180
-118.72383952140808 ,-514.5739316940308 ,1488.0000352859497, 0, 0, 180
-96.80028259754181 ,-522.1819281578064 ,1510.0001096725464, 0, 0, 180
-84.45445448160172 ,-519.0695524215698 ,1501.0000467300415, 0, 0, 180
-73.12140613794327 ,-522.1819281578064 ,1510.0001096725464, 0, 0, 180
-61.768971383571625 ,-526.3316631317139 ,1522.0000743865967, 0, 0, 180
-49.671731889247894 ,-524.6025919914246 ,1517.0000791549683, 0, 0, 180
-37.55328059196472 ,-521.490216255188 ,1508.0000162124634, 0, 0, 180
-25.473590940237045 ,-516.3030028343201 ,1493.0000305175781, 0, 0, 180
-27.647150680422783,-501.55508518218994,1484.0000867843628, 0,  0, 180
-39.62685167789459,-505.9487819671631,1497.0000982284546, 0,  0, 180
-51.29573866724968,-505.27286529541016,1495.0001239776611, 0,  0, 180
-63.186176121234894,-506.624698638916,1499.000072479248, 0,  0, 180
-75.48929750919342,-510.34247875213623,1510.0001096725464, 0,  0, 180
-87.84923702478409,-513.384222984314,1519.0000534057617, 0,  0, 180
-99.62788969278336,-512.7082467079163,1517.0000791549683, 0,  0, 180
-110.56652665138245,-508.3146095275879,1504.0000677108765, 0,  0, 180
-120.73180824518204,-501.55508518218994,1484.0000867843628, 0,  0, 180
-131.38623535633087,-497.8373646736145,1473.0000495910645, 0,  0, 180
-143.61481368541718,-500.2031922340393,1480.0000190734863, 0,  0, 180
-157.21172094345093,-506.624698638916,1499.000072479248, 0,  0, 180
-168.9649224281311,-506.624698638916,1499.000072479248, 0,  0, 180
-178.90971899032593,-501.55508518218994,1484.0000867843628, 0,  0, 180
-190.03169238567352,-500.2031922340393,1480.0000190734863, 0,  0, 180
-200.13728737831116,-496.48547172546387,1469.0001010894775, 0,  0, 180
-211.94341778755188,-497.1614181995392,1471.000075340271, 0,  0, 180
-226.0597199201584,-502.9069781303406,1488.0000352859497, 0,  0, 180
-242.35980212688446,-512.7082467079163,1517.0000791549683, 0,  0, 180
-257.7737867832184,-519.8057889938354,1538.0001068115234, 0,  0, 180
-269.8327600955963,-519.8057889938354,1538.0001068115234, 0,  0, 180
-279.69232201576233,-515.7500505447388,1526.0000228881836, 0,  0, 180
-292.23060607910156,-516.7639851570129,1529.0000438690186, 0,  0, 180
-304.21900749206543,-516.7639851570129,1529.0000438690186, 0,  0, 180
-316.2074089050293,-516.7639851570129,1529.0000438690186, 0,  0, 180
-327.12259888648987,-515.0740742683411,1524.0000486373901, 0,  0, 180
-338.62683176994324,-514.3981575965881,1522.0000743865967, 0,  0, 180
-346.8751013278961,-508.9905261993408,1506.00004196167, 0,  0, 180
-354.39613461494446,-502.9069781303406,1488.0000352859497, 0,  0, 180
-365.07904529571533,-501.55508518218994,1484.0000867843628, 0,  0, 180
-380.01468777656555,-505.9487819671631,1497.0000982284546, 0,  0, 180
-394.1074311733246,-508.9905261993408,1506.00004196167, 0,  0, 180
-404.0287435054779,-506.624698638916,1499.000072479248, 0,  0, 180
-414.67246413230896,-505.27286529541016,1495.0001239776611, 0,  0, 180
-427.53514647483826,-506.624698638916,1499.000072479248, 0,  0, 180
-438.1161332130432,-505.27286529541016,1495.0001239776611, 0,  0, 180
-447.12990522384644,-502.23106145858765,1486.0000610351562, 0,  0, 180
-458.16370844841003,-501.55508518218994,1484.0000867843628, 0,  0, 180
-466.31693840026855,-497.8373646736145,1473.0000495910645, 0,  0, 180
-475.91978311538696,-495.80952525138855,1467.000126838684, 0,  0, 180
-492.4059212207794,-500.879168510437,1482.0001125335693, 0,  0, 180
-732.4332594871521,-514.3981575965881,1522.0000743865967, 0,  0, 180
-746.3230490684509,-515.7500505447388,1526.0000228881836, 0,  0, 180
-757.2941184043884,-515.0740742683411,1524.0000486373901, 0,  0, 180
-755.6149959564209,-505.9487819671631,1497.0000982284546, 0,  0, 180
-754.0251016616821,-497.1614181995392,1471.000075340271, 0,  0, 180
-765.5587196350098,-497.1614181995392,1471.000075340271, 0,  0, 180
-782.9034328460693,-500.879168510437,1482.0001125335693, 0,  0, 180
-795.5955862998962,-501.55508518218994,1484.0000867843628, 0,  0, 180
-810.4948997497559,-503.5829544067383,1490.0001287460327, 0,  0, 180
-823.8328695297241,-504.5968294143677,1493.0000305175781, 0,  0, 180
-831.6215872764587,-502.23106145858765,1486.0000610351562, 0,  0, 180
-838.1655812263489,-499.1892874240875,1477.000117301941, 0,  0, 180
-849.7462868690491,-499.1892874240875,1477.000117301941, 0,  0, 180
-858.9943051338196,-497.8373646736145,1473.0000495910645, 0,  0, 180
-869.3616986274719,-497.1614181995392,1471.000075340271, 0,  0, 180
-884.4884037971497,-499.1892874240875,1477.000117301941, 0,  0, 180
-896.0691094398499,-499.1892874240875,1477.000117301941, 0,  0, 180
-913.180410861969,-502.23106145858765,1486.0000610351562, 0,  0, 180
